-0.17682667 0.85098183 -0.13356663
0.25025284 0.85886604 -0.19222243
-0.29299399 0.44793993 -0.05616317
-0.00190597 0.95252192 -0.10996623
-0.30032754 0.64347947 -0.03235303
0.23097889 0.89403152 -0.12249926
0.40481439 -0.76982224 -0.00996854
0.23983009 0.16462649 -0.16212213
0.04760787 0.19553673 -0.23660244
-0.16464312 -0.02039354 0.38938254
-0.29964781 0.09277099 0.06624416
0.25867590 0.67665011 -0.21560486
-0.33476481 -0.53179252 -0.45288074
-0.23596911 -0.04955122 0.39349777
0.41448626 -0.46472284 0.10896970
-0.20176145 0.06759162 0.02077834
0.28356045 0.63880610 -0.14609355
-0.32679784 -0.38937548 -0.32330495
-0.15023598 0.05769259 0.15027669
0.42397344 -0.65934670 0.08194333
-0.21813743 0.88238519 -0.04333591
0.35848129 -0.08765496 0.33397162
0.20226350 -0.18202515 -0.45230103
0.39968431 -0.05149399 0.23935540
-0.11951460 -0.17839254 -0.29413345
0.18610711 0.84981322 -0.14184284
0.07152744 -0.10154994 0.37099612
0.24922810 -0.05342185 0.33903778
-0.32553083 0.07637778 0.03792989
-0.19981910 -0.52557051 0.28543925
-0.06049353 0.12960525 -0.14823024
-0.32591346 -0.61719006 0.19898091
0.36582357 0.03565603 0.31194085
-0.30138749 0.10833172 -0.16581552
-0.15496166 -0.01420707 0.43804866
-0.19427711 -0.45651326 0.32004720
0.35106117 0.10133941 0.09296939
0.39571846 0.06671438 0.05028288
0.06628442 0.11336896 0.04157917
-0.36949062 0.04995146 -0.08058204
0.09340445 0.01135433 0.23871987
0.28915721 0.04462482 0.17597626
0.34143898 0.15969914 0.03044046
0.16143246 -0.47027093 -0.64412504
0.21380058 -0.40088978 -0.64291918
0.18928228 0.14340934 -0.15555942
0.23108035 -0.04936964 -0.38333946
-0.05097958 -0.05640599 0.43619597
-0.13944967 -0.05923548 0.36173207
0.00261215 0.16683760 -0.25658381
0.29858592 0.35955977 -0.17872404
-0.28003916 -0.44909412 0.35175830
-0.25185543 -0.47686577 0.21054272
0.09212148 -0.43902081 0.25634962
0.06665111 0.19354992 -0.19635518
0.24861650 -0.39696005 -0.55594033
0.44569558 -0.45019951 0.09963131
-0.15485163 -0.03858683 0.36257190
0.19967493 -0.39899787 0.21250363
0.47590980 -0.38348761 -0.03709023
-0.28920639 0.09734179 -0.00970586
-0.32555282 -0.80130732 0.23634990
0.37622556 -0.57361984 0.14867054
-0.31163609 -0.18922862 -0.23360325
-0.07272643 0.13671821 -0.12368731
0.37092370 0.03649651 0.16301854
0.49496529 -0.79671848 -0.03512926
0.35541806 -0.25037122 0.25624007
-0.11718929 -0.05303248 0.49226373
-0.33716905 -0.11520269 -0.21509054
0.02822686 0.92074430 -0.14994013
-0.24054225 -0.00706142 0.26356530
-0.19266385 0.11724544 -0.05642945
-0.29285017 -0.08082936 -0.23108430
0.43567273 -0.54140955 0.06058134
0.44737408 -0.30664098 0.17721500
-0.28478375 -0.07117554 0.45126408
-0.09218106 -0.01816887 0.24619775
0.20576502 0.19759065 -0.25463125
0.37246826 0.00286631 0.05662403
-0.43641421 0.80630744 -0.00666015
-0.43017092 -0.42194971 -0.39716655
-0.08299753 -0.07236301 0.36687899
-0.29129583 -0.22760926 -0.28705287
-0.28640062 0.06853011 -0.02248978
-0.20390506 0.87554348 -0.06340735
0.26866478 0.10051294 -0.00814406
-0.38523206 0.04148063 -0.04354808
-0.25481009 -0.04001546 0.28792679
0.17109060 0.02214336 0.24209462
-0.25875846 0.04678376 0.26283914
-0.02785588 0.14146212 -0.06405314
0.29752311 0.06587443 -0.05658685
-0.30853686 -0.32868117 -0.29056603
0.05093900 0.00723801 0.08136117
-0.27890208 -0.52661914 0.25714231
0.09944379 0.01136278 0.18811040
0.28873283 -0.42062110 0.27084643
0.29694390 0.31094563 -0.28170520
0.11324915 -0.42886674 0.21988226
0.11702538 0.17476711 -0.07790212
-0.33550465 0.13736357 -0.20634906
0.42563981 -0.02601564 0.23242091
-0.26783317 -0.11867346 0.43076843
0.27488711 0.06827692 -0.32071728
0.40419498 -0.38825011 0.15225260
0.05453334 -0.15557015 -0.44776928
-0.40248904 0.19558173 -0.17104161
0.20773858 0.17291488 -0.23477101
-0.11929713 0.71010065 -0.19018748
0.23173794 0.09174637 -0.31663549
-0.35367149 0.40503788 -0.14951208
-0.39250928 0.64361268 -0.01016209
0.49879235 -0.00438709 0.16378160
0.21258573 -0.39620730 0.22223227
-0.19102660 -0.09131043 0.41619915
0.21975847 0.01124931 -0.40346909
0.39225626 -0.08989330 0.27244294
0.22225398 -0.22068866 -0.55685622
-0.21271506 -0.19146571 0.38971728
0.22054461 -0.02664863 -0.42299968
0.23595060 -0.02785584 -0.45473123
-0.11538607 -0.00767789 0.31760752
0.26960209 0.34497145 -0.22955522
0.33411089 0.74027699 -0.16448069
0.47927240 -0.09432285 0.26143271
-0.32262313 0.10775152 0.07809882
-0.14808673 0.91274965 -0.06862592
-0.21665500 -0.60941994 0.21414216
0.27289581 0.32248986 -0.35324514
0.42687875 -0.54024011 0.13777967
0.26079589 -0.42020538 0.17533545
0.41580179 0.11984140 0.10096715
0.30320585 0.62549722 -0.15990984
0.12235045 0.06185350 0.15371078
-0.24189326 0.06346486 -0.09518551
-0.14394219 0.10931117 0.00166947
-0.36697319 0.45312080 -0.05222529
-0.25058860 -0.19169720 -0.26274967
-0.16070709 -0.16837260 -0.31176448
0.20608367 -0.51847667 -0.66138059
-0.16323823 -0.22416610 -0.38891220
-0.14523476 -0.11037494 0.49399745
-0.26440096 0.08540563 0.06239012
-0.05803885 -0.10249603 -0.28701857
0.39681906 0.12057515 -0.08609969
-0.13294880 0.19314091 -0.14733306
0.21221048 0.42654040 -0.26174587
-0.28740245 -0.34253901 -0.19789070
-0.21946210 -0.17639786 -0.36218190
-0.20261511 -0.56456113 0.30294478
-0.28445351 0.07124962 0.10593252
0.22290045 -0.07794154 0.43184566
0.53397024 -0.66353261 0.04625189
0.20656221 0.06239849 0.20342366
0.20157120 -0.03415821 -0.38462001
-0.30002850 -0.01571864 0.41613263
0.35884169 -0.38436225 0.19397874
0.04761041 -0.08816668 0.34990472
0.24732681 0.53845072 -0.15134893
0.00662878 0.17282911 -0.25370735
0.23505524 -0.58878237 -0.65687829
0.20285204 0.13249558 -0.02942568
-0.12152715 0.09108000 0.11509782
0.29460347 0.00216572 0.11036851
0.46865115 -0.60732257 0.12613785
-0.39629507 0.08358571 0.00571913
0.36860168 -0.38465190 -0.07352509
-0.31229985 -0.36827746 -0.40807670
0.10654114 -0.20227239 -0.44525194
-0.00797522 0.70916396 -0.16803040
-0.28222269 -0.57310492 -0.46300954
-0.05419974 0.01032115 0.34159815
0.24300997 -0.19947864 -0.45370966
-0.32772717 0.05206208 0.05976920
-0.24111195 0.04082805 0.26456183
0.16565961 0.07682075 0.16119836
-0.28348154 -0.35713670 0.28421086
0.28806156 0.32230291 -0.24673079
-0.31490180 0.01444929 0.24818607
0.03927549 -0.03820907 0.36483711
0.22411399 0.24490316 -0.30078089
0.08561581 0.02598412 0.31263930
-0.09733766 0.07902700 0.02387947
0.31972051 0.81768644 -0.12120405
0.18242230 0.13494983 -0.05385262
-0.10624307 0.02246374 0.23341866
0.16737291 -0.00287113 0.24492286
0.10114470 -0.07328239 0.34195924
0.38467532 0.02775440 -0.10195783
0.33871001 0.04071401 0.15535645
0.26283848 0.01739646 -0.24156369
-0.02053625 0.41152430 -0.23588385
-0.45102397 0.76606601 -0.01801233
-0.19957359 0.04944291 0.12277889
0.27903482 0.83052284 -0.07481615
-0.08878370 -0.02191474 0.44141179
0.17958650 0.89056152 -0.14043531
0.12091575 -0.05238421 0.14558928
-0.07348285 0.86117202 -0.11878774
0.11615381 0.16398063 -0.14876141
0.26167506 -0.10163779 0.41761708
0.23949546 -0.15108643 0.28493416
-0.43073487 0.80446470 0.00187965
0.42504898 -0.43997747 0.15339993
0.26400974 0.44956797 -0.27138770
0.05986036 -0.40721604 0.26477659
0.17166203 0.11250222 0.03174569
-0.37074775 -0.26759189 -0.30113596
-0.34212551 -0.38047820 -0.28007221
0.17612864 -0.06232800 0.32363665
0.06427146 -0.47569394 0.30519545
0.43126678 -0.16668399 0.27707124
-0.24445921 0.02085183 0.29593468
0.23486166 0.87005883 -0.15670002
0.17327635 -0.15994133 -0.42618388
-0.01936916 0.16131234 -0.15692210
0.10651540 -0.06692898 0.35693890
0.37380368 0.05544786 0.31042600
-0.15716429 0.03018581 0.07145128
-0.04546692 -0.02918734 0.23606063
0.24624448 -0.54854327 -0.61415154
0.49476394 -0.64147127 0.03216852
-0.09392210 -0.44211230 0.29573655
0.02951362 -0.04282724 0.35743678
-0.45369077 0.41461611 -0.09967381
-0.31179878 -0.20054154 -0.23298919
0.28526971 -0.40288818 0.12414743
0.49802351 -0.84986413 0.08189651
0.04642276 0.17211996 -0.10940176
0.03359723 0.19414282 -0.23520969
-0.40855551 0.51662165 -0.02861477
-0.23281944 -0.14932254 -0.35543734
0.20033056 -0.09777087 0.35578227
-0.05325397 0.73612124 -0.12409791
-0.40894574 0.65876454 0.01610143
-0.28992367 -0.71444190 0.29317254
-0.18576846 0.14466770 -0.15249482
-0.33349675 0.01734565 0.04328613
-0.26739642 0.13567126 -0.17347431
-0.34633049 -0.56738573 -0.50885463
0.03802359 0.90815735 -0.08926385
-0.33613560 -0.44229257 -0.46108627
-0.09020370 -0.05083224 0.38640553
-0.43513566 0.88967383 0.09011659
-0.29905859 0.06914939 0.01358506
0.17840759 -0.60787374 -0.67802358
-0.26773965 -0.41632196 -0.02444299
0.40999296 0.00513930 0.16684557
-0.42468548 0.00483099 -0.02512082
0.40828755 0.84443116 -0.14586955
0.12981983 0.53693902 -0.13470091
0.39307532 -0.40546298 0.22297193
0.19999483 -0.36820382 -0.59867728
-0.34262240 0.15754974 -0.12648664
0.16394186 -0.28594741 -0.50051516
0.37401950 -0.08322367 0.16360764
-0.18212658 -0.38288051 0.33781886
0.45714569 -0.78218621 0.01358908
-0.33054173 0.10590906 -0.25534731
0.24778730 0.18637906 -0.18699484
-0.22273500 -0.20828795 0.47596067
0.06703228 -0.01181398 0.36449069
-0.21871065 0.09360576 0.06432787
-0.15333021 -0.11066115 0.41722381
-0.44381168 0.82619935 0.08868887
0.32531872 0.03954903 0.04417190
-0.35961083 0.69523340 0.02062942
-0.25214532 0.41860762 -0.16975619
-0.32560569 0.16859289 -0.15699378
-0.32128450 -0.88765669 0.25912964
0.39690441 -0.61221582 0.16293578
-0.21477279 -0.08201401 0.50256807
-0.19595294 -0.43446136 0.30148607
-0.13679831 0.15183401 -0.18700145
0.13605215 -0.34879538 -0.55127251
0.19860634 -0.05814484 0.29712301
0.15220661 -0.01609349 0.20469387
0.27079099 -0.21879880 -0.37936497
0.18276860 -0.31043935 -0.44117689
-0.25627080 0.01565747 0.24061523
0.15484892 0.21364024 -0.23232332
0.12137850 -0.07416950 -0.36851871
-0.26142222 0.21931855 -0.13280974
-0.23211226 0.44558632 -0.11074567
0.12380452 -0.00247273 0.27875859
-0.31998357 -0.19268307 -0.23945580
-0.02386184 0.01460705 0.27113962
0.20065320 -0.56988645 -0.72392261
-0.40038839 -0.55990446 -0.50800884
-0.18085450 0.13310832 -0.07800350
-0.28346366 -0.40636310 0.04428165
0.40687418 -0.69791734 0.11408418
0.12235089 -0.33369094 -0.56506884
-0.21038888 0.11504050 0.14563091
-0.29335335 0.04384057 0.17250870
0.15219451 -0.14480814 0.29062027
-0.19211736 0.46476668 -0.15951867
-0.37456697 0.64601153 0.01330318
0.19956967 0.04409053 0.24743198
-0.33995360 0.14474550 -0.21115185
-0.15432343 0.02997295 0.37929165
-0.33405775 -0.06883251 0.26892817
0.18870740 -0.33236456 -0.51132214
0.06974510 -0.08293661 0.43658519
0.22060096 -0.04111154 -0.37643361
0.04024857 0.09017154 0.09544389
0.18049616 -0.00559333 -0.36869234
0.34321919 0.67481130 -0.13572124
-0.24484715 -0.56055820 0.21637817
0.29196000 -0.02908646 0.41745716
0.31981599 0.11272860 -0.16609976
-0.39893743 0.84175074 -0.01779043
0.36631766 -0.05602036 0.22360258
-0.32945216 -0.05248215 0.16556366
-0.27448249 0.01447704 0.22646336
0.08263487 -0.39947459 -0.58191645
0.38741773 0.09948965 0.01447804
-0.42620778 0.79712987 0.02798630
0.18515486 -0.08578133 -0.34525335
0.21855158 -0.33056581 -0.57483286
0.26003766 0.22644240 -0.24812622
-0.27960598 0.03243938 0.17594494
0.16231787 0.70400560 -0.09892693
0.31343147 -0.03061162 0.20464267
-0.16438346 0.03336613 0.17966314
0.13577619 0.49356908 -0.18510535
0.17644708 -0.11713721 0.34358412
0.05073902 0.11796942 0.00352238
-0.40046605 0.83599240 -0.00708585
0.31853449 -0.05765610 0.26493555
0.10456070 0.41090801 -0.23070756
-0.27122292 0.05227204 -0.23559032
-0.26325980 -0.14539692 0.35348654
-0.23250392 -0.00825964 0.34750336
-0.20909165 -0.57280570 0.29791331
-0.15649733 -0.10113144 0.46205008
-0.35596442 0.38573444 -0.14449173
0.17277636 0.01135860 0.17619382
0.28123865 0.28299743 -0.30401722
-0.26860327 0.73979408 -0.05538755
0.34309921 -0.11164694 0.30287457
0.19554669 -0.57362908 -0.61361325
0.27911571 0.80459744 -0.25309795
-0.03600846 0.47949469 -0.18372506
-0.29183915 -0.35072744 -0.02863435
-0.12401694 -0.11595672 0.46005827
-0.11377773 -0.00723680 0.32479352
-0.30617040 -0.40527970 0.11970118
-0.06516790 0.03128766 0.17876913
0.25989059 -0.31046116 -0.48711163
-0.26519254 -0.03538968 0.37144309
-0.40263277 0.68924582 -0.05640969
0.10021625 0.08895098 0.11162853
-0.26316446 -0.93845016 0.22444873
0.30323982 0.03237405 0.07388100
-0.38165733 -0.31265482 -0.32422614
-0.13937889 -0.07783253 0.47548759
0.41338086 -0.42000335 0.19352625
-0.34428531 -0.36744013 -0.09488119
-0.14186232 0.05960648 0.05938794
-0.48054576 0.44417053 -0.00570162
0.29220161 0.12139068 -0.03511105
-0.09794521 0.85682207 -0.10714174
0.12987354 -0.42378438 0.29914278
0.16288941 0.04155004 0.13651997
-0.01279767 -0.16021802 -0.41638333
0.24801697 0.86757159 -0.17365196
0.16276892 0.00593263 0.28659213
-0.18300703 -0.00585904 0.20373262
-0.20769458 0.16555411 -0.10489407
-0.23774552 -0.83779722 0.27451664
-0.31449580 -0.70027703 0.32801980
-0.41096872 -0.42101103 -0.35912997
-0.13910069 0.37641099 -0.21374068
-0.29616305 -0.39109078 0.16232078
0.25547948 -0.07900593 0.28779566
0.45014387 -0.08381592 0.26960433
-0.26076311 0.11224239 -0.00818618
-0.05469963 -0.11270832 0.40181726
0.37067547 -0.18123181 0.27495986
0.44982362 0.05137365 0.07578161
-0.40503281 -0.61556816 -0.52843559
0.14652267 -0.56290573 -0.66539806
-0.20380898 -0.54806757 0.36779547
-0.15464744 -0.14455357 0.43943983
-0.03930791 0.11775782 -0.11201621
0.16407295 -0.28493536 -0.51843888
0.19322085 0.29700306 -0.26253918
-0.23146594 -0.41955146 0.42479420
0.05124805 0.06031207 0.08664890
-0.12032861 -0.45745012 0.33187205
-0.28921580 0.08593030 0.05291486
-0.21206492 0.00540171 0.41372508
-0.36942691 -0.57486939 -0.43570125
0.04510789 0.45861819 -0.23737346
-0.20766880 -0.24533281 0.44101787
-0.17041990 -0.37202603 0.32748049
-0.24429324 0.09961578 0.12934184
-0.26077762 -0.06096572 0.45789558
-0.38626951 0.64620352 -0.01511218
0.04946747 0.72671896 -0.14022462
0.27939060 -0.35243499 -0.21989392
0.27056858 -0.01734249 0.33412039
-0.28020191 0.01538319 0.30474615
0.40014717 -0.09195766 0.30492896
-0.33814791 0.30747873 -0.09738481
-0.38142964 0.36889750 -0.14724901
-0.14184970 0.09964979 -0.02593478
-0.29498276 -0.36311463 -0.40695137
-0.26361552 -0.37251765 0.05100688
0.18302761 -0.12922518 -0.31090039
-0.13575749 -0.45006174 0.31399733
0.41422907 -0.21375281 0.25071591
0.31125158 0.10326353 -0.01708566
0.46906421 -0.36606029 0.06136605
-0.42037547 0.34600964 -0.11814921
0.15534566 -0.40126804 -0.52946830
-0.32494402 0.19452250 -0.18170139
-0.20040956 -0.11528822 -0.35579002
0.23869254 0.10899484 -0.38515335
-0.32336801 -0.29780114 -0.31714076
-0.08800785 -0.10017714 0.41538888
-0.24504730 -0.12155348 0.52159536
-0.39418814 0.09608405 -0.22573450
-0.30363107 -0.00323299 0.14761145
0.28946003 0.53005505 -0.14226991
0.04499672 -0.00788160 0.24915107
-0.38585424 0.70738405 0.04634538
0.21965033 -0.41602573 -0.47577906
0.12242134 -0.24668118 -0.51490325
0.06094316 -0.35579249 0.25566840
0.32585239 0.66861898 -0.08806021
0.28041801 -0.07601909 0.34031856
0.28801718 0.45460829 -0.14141905
0.25448269 -0.01818577 0.14841262
-0.30940101 -0.35713032 -0.05798113
-0.27835426 0.45305341 -0.13566506
-0.27732864 -0.28750610 -0.26948708
0.33655563 0.08854821 0.06130187
-0.05186164 0.70002568 -0.12430387
-0.36843973 0.65818375 -0.07557145
-0.29769012 -0.09517178 0.35720897
-0.35436919 0.06750318 -0.22630589
0.18552157 -0.00950015 -0.30169109
-0.23553295 -0.52149725 0.27039689
-0.36464489 -0.20317245 -0.26617137
-0.25943810 0.04420086 0.14566335
-0.32089597 -0.75962549 0.19813876
-0.27334955 -0.44587392 0.28380108
-0.03697817 0.13177191 -0.12833226
-0.31777266 0.63806605 -0.09341196
-0.33706829 0.01847052 -0.00559264
0.25962004 -0.34211582 -0.42597371
-0.13670294 -0.01384438 0.36301160
-0.37578419 0.41144425 -0.05794885
0.28812832 -0.34145325 -0.21514857
-0.31868109 0.70536709 -0.13185766
0.30775392 0.04563291 -0.20410849
0.18535222 -0.02418290 -0.29930055
-0.27976057 -0.05331703 0.39409161
-0.11908767 0.10725528 -0.11007048
0.11486552 -0.19943139 -0.49278682
-0.30705690 -0.50504333 0.35527867
0.29811475 0.13557421 -0.20229682
0.24995846 0.06598222 0.16067214
0.07374283 -0.10121109 0.45857006
-0.16540506 0.12268024 -0.09049972
-0.16009554 0.02892492 0.16266738
0.46319655 -0.63710594 0.06997007
0.30209792 0.71948183 -0.12258168
0.26419443 0.03687803 0.16176195
0.47058207 -0.25415120 0.23811714
0.22681925 0.17421976 -0.15733366
0.02428353 0.45653939 -0.19883019
0.29311261 0.05169687 -0.06608385
-0.32164150 -0.40154713 -0.33225322
-0.04954378 -0.15493289 -0.40669876
-0.14824040 0.05841874 0.15427241
-0.10416541 0.01540728 0.23311897
-0.21690673 -0.12231772 0.49785590
0.14436311 -0.12141888 0.33306044
0.18256901 0.71459204 -0.13964251
-0.30391258 0.02351892 0.08227293
0.05733094 0.19230273 -0.13260181
-0.45893359 0.74658090 0.06005251
-0.25923008 -0.36461484 0.40129215
0.05278576 0.45025387 -0.19711405
0.32596326 0.92139566 -0.10399801
-0.14385428 0.13781328 -0.19977459
0.18418640 -0.41316015 0.23693471
0.04702781 0.17331538 -0.19864631
0.24620989 0.15675755 -0.33717579
0.05445793 0.02975637 0.23153214
-0.23106562 -0.38279912 0.23490204
0.40969113 -0.06054043 0.40538061
0.37021166 0.05318645 0.07836279
0.37731433 -0.02402183 0.14475593
0.08002076 0.69882441 -0.16746259
0.17146450 0.11068384 0.05103102
-0.37243810 0.69457203 -0.12454074
-0.31892300 -0.08229806 0.33737034
0.00040135 -0.09610339 0.42651230
0.42670703 -0.71964443 -0.06903230
-0.03995679 0.13062289 -0.19231999
0.26521736 0.09734015 -0.16561431
-0.05943660 0.63407713 -0.14759737
0.07993213 0.10542795 0.05074488
-0.27593461 -0.07821205 0.39742470
-0.38332367 0.67049325 -0.00277345
-0.26729366 0.69036484 -0.08201924
0.12433762 0.69981229 -0.14463268
-0.29833525 -0.74228704 0.19655822
0.46516097 0.01731082 0.29854614
0.12255401 -0.07467461 0.43475765
0.19149898 -0.07688702 0.31906110
-0.16749793 0.43292943 -0.12423354
0.28395697 -0.41426727 0.17301036
0.42962551 -0.09675637 0.13972643
0.38812199 -0.62678409 0.10616313
-0.34201312 -0.13216397 -0.24231289
-0.27134827 -0.30135593 0.43413299
-0.32740936 -0.42119846 -0.31765682
-0.34666327 0.23297036 -0.09776461
-0.36335924 -0.45474881 -0.41452104
-0.01665805 -0.01693759 0.32268959
-0.31816941 0.01116195 -0.17480063
-0.06832526 0.14611050 -0.03051146
-0.36808297 -0.34707791 -0.33034033
-0.34557575 0.23491703 -0.14502998
0.36886203 -0.41242075 0.15809490
0.36734968 0.01221098 0.31056941
0.39970705 -0.01774251 0.34248966
0.53326297 -0.68359619 0.08111542
0.44654432 -0.02573152 0.25429642
0.25447229 0.30514953 -0.21597052
-0.27853397 0.89030617 -0.00043626
-0.26496932 -0.35613734 0.35085320
-0.37365839 0.62456924 -0.06074378
-0.21817148 0.15585890 -0.18473563
-0.16181871 -0.41241562 0.28553903
-0.00792553 0.14251381 -0.14948139
0.20278822 0.25834897 -0.28549790
0.20540613 0.04341951 0.09635782
0.40783313 0.07477649 0.11970052
0.19598052 -0.19036730 -0.36170858
-0.28042650 -0.90788394 0.21208523
-0.33125556 -0.52672058 0.30307537
0.02113467 -0.00008713 0.30250901
0.08913223 -0.03488696 0.26723975
-0.30254838 0.26924691 -0.15205973
-0.41783938 -0.47220466 -0.46280658
-0.25239518 -0.05955496 0.30184102
-0.32529670 -0.14748630 -0.19225618
0.06509881 -0.00935668 0.38885391
0.40449056 -0.34065542 0.08727804
0.27353472 0.13066199 -0.29871589
-0.36962804 -0.59840423 -0.41012460
0.17309573 0.02198632 -0.39430374
0.26791137 0.00242144 0.22101869
-0.04434835 -0.17005916 -0.30568910
0.49123698 -0.40178639 0.10998395
0.04421217 -0.41089305 0.29854870
-0.19841562 -0.01886360 0.30104941
0.21837047 -0.39751455 -0.51058674
-0.27822530 -0.76729429 0.24042077
-0.03564197 -0.07110295 0.47216326
0.07581134 0.02253654 0.08608136
0.24189596 -0.05584055 -0.35942429
0.27211437 0.59539253 -0.14763251
-0.28567079 -0.08068001 0.49206203
0.34026128 -0.38853836 -0.00304897
-0.34222949 0.15033585 -0.01999252
-0.26908270 0.06057946 0.00868121
0.18003123 0.08484675 0.01234923
0.05294190 -0.05866486 0.36578953
0.41565004 -0.74782193 0.05117145
-0.25132623 -0.33901832 0.46779466
0.13105322 0.71509290 -0.10135725
-0.31112406 -0.42420420 0.12169896
0.23986369 -0.05390204 0.29534906
0.04906986 0.47766265 -0.15008393
-0.08700486 0.11495325 -0.14860216
0.21623214 0.58883715 -0.10304746
-0.24169153 -0.48658380 0.33030045
-0.34545282 -0.32143521 -0.29205897
0.40150014 -0.14429110 0.34916097
0.16476287 -0.51135582 -0.68007219
0.19931340 0.05972242 0.15839888
0.39174479 0.00519105 0.16071086
-0.34481463 -0.58752549 -0.47638702
-0.31783369 0.02595687 0.15053460
-0.07442361 0.42445531 -0.20209466
-0.17056113 -0.00277472 0.19584607
-0.07467881 0.07488017 -0.00392411
-0.42393717 0.28208482 -0.13315175
0.03809819 0.87449127 -0.10163875
-0.27394620 -0.43443331 -0.36068720
-0.24946776 -0.49687970 0.23445542
-0.06727274 -0.03940260 0.28006029
0.34947890 -0.35143355 0.15602417
-0.19365004 -0.12928517 0.47286314
-0.20196442 0.05702333 0.15654717
-0.21585521 -0.59983206 0.28225243
0.05290545 0.03947072 0.08990772
0.36951458 0.06933463 0.00923410
-0.30110687 0.02850892 -0.22667599
-0.29349440 -0.05757733 -0.18204036
0.12640217 -0.57342988 -0.61896491
-0.18813694 0.06757706 -0.04085157
0.00255282 0.04114739 0.06662574
0.27651474 0.12262084 -0.06619353
-0.45403665 0.76605636 -0.01241240
0.03140441 0.01780567 0.31288272
0.00377493 0.43619597 -0.15962471
0.11362280 0.03804825 0.07003462
-0.32036725 0.67521727 -0.03346155
0.22619624 -0.07372936 -0.43759108
0.42599818 -0.72422385 0.05430692
0.04236434 0.10952478 0.00165098
-0.29643714 -0.27480379 0.42058110
0.02996134 0.08350523 -0.04084891
-0.06966930 0.18874092 -0.00884431
-0.23617321 -0.18110472 -0.30705169
0.27881923 0.77688420 -0.12838338
0.14653167 -0.35648996 0.26572126
-0.30230296 -0.08077336 -0.22860718
-0.38598755 0.20540325 -0.07787859
0.42812380 -0.37658727 0.17545845
0.13261072 -0.32149342 -0.46957171
0.34278977 -0.01391351 0.04145305
-0.14252010 -0.30764520 -0.37497932
0.06578691 0.00391983 0.14833228
0.33506534 0.65157318 -0.12581515
0.18356152 -0.01419181 0.39774477
0.26872903 0.03877930 0.18979602
0.17734191 -0.47866046 -0.59134138
0.29289562 -0.10309478 0.33758491
0.44269127 -0.60695392 0.03635700
-0.28409964 -0.81894362 0.22019900
-0.32451031 -0.66785789 -0.48819029
-0.30721623 -0.50215244 0.26559883
-0.20016845 -0.02429725 0.51786351
0.15791541 -0.52023089 -0.73629153
0.27464622 0.16851757 -0.01603369
0.44465688 -0.20169780 0.21741174
0.30844599 0.19683635 -0.22584262
0.27965507 -0.42872784 0.16534974
0.15845239 0.45627329 -0.25514936
0.45388126 -0.84177113 0.05119406
-0.38720128 0.40428466 -0.02981451
0.28486270 0.72423536 -0.06381374
0.10260517 0.16175947 -0.29838017
-0.31066743 -0.18939197 -0.32012290
0.29416829 0.07852235 0.05583014
-0.08917611 -0.43587646 0.24541990
0.13993864 0.08254883 0.14439809
-0.12942635 0.03646128 0.33952999
-0.13039754 -0.46640524 0.28312021
0.40629750 -0.33101761 0.16705056
-0.19709460 0.10776325 0.07112867
0.11260764 -0.12278773 -0.39893532
0.02863522 -0.04645557 0.30696446
-0.44080579 -0.25161523 -0.28778923
-0.07999542 0.14588410 -0.00328207
-0.38345546 0.84939897 -0.03038014
0.13038540 0.20195955 -0.21981512
-0.22879054 0.08892950 0.17131738
-0.18377176 -0.07788560 0.45048940
-0.39436984 -0.09779414 -0.28123111
0.47024208 -0.65072817 0.07631417
-0.39622051 -0.36693817 -0.01467787
-0.21341263 0.07052930 0.01991592
0.00348819 -0.08041611 0.34934229
-0.00956294 0.19331588 -0.28196168
-0.20794487 -0.09985043 0.45529896
0.37110621 0.05131110 0.26905721
-0.29384077 -0.91667193 0.26236069
-0.50072396 0.81496835 0.05193929
0.00260163 0.00842172 0.30930060
0.25914124 0.48671782 -0.26215449
0.27438575 0.74613214 -0.19673103
0.31853107 0.07896177 0.10537724
-0.14157495 -0.12185656 0.42599529
-0.33797795 -0.21295574 -0.31226465
-0.30694020 0.46087712 -0.05214465
-0.29422352 0.14702836 -0.15749407
-0.18503115 -0.18164705 -0.35809147
-0.35994557 0.00682488 0.05362308
-0.10846437 0.02354324 0.32422727
0.19998829 0.20230392 -0.15866399
0.24180903 0.25561032 -0.22031058
-0.03334488 -0.07285441 0.39186090
-0.32409656 0.05123266 0.13750660
0.11130129 -0.08894117 0.32373625
-0.14754826 0.10080235 0.05522397
0.34071752 0.18080182 -0.22230969
-0.27237186 -0.74743825 0.24379940
0.45215884 -0.39938217 0.17881159
-0.14696164 0.00955895 0.24642633
0.19487765 -0.54657298 -0.66281301
0.13995771 0.21588822 -0.23165397
-0.09005431 -0.10566828 0.38242012
-0.38517419 -0.47331703 -0.49432427
0.27395579 0.19233295 -0.16383117
-0.28440860 -0.36825195 -0.01992699
0.13154212 0.08586129 0.05959809
0.30843973 0.80090350 -0.09088584
-0.14106041 0.20096466 -0.00470759
0.07197598 0.46983281 -0.23701835
0.41518250 0.06438158 0.04324467
0.41338083 -0.67478836 0.08206004
-0.20709398 0.06732799 -0.06701749
-0.08916038 -0.18367691 -0.36877328
-0.35217470 0.25197250 -0.21351466
-0.27243203 -0.29466066 -0.32599404
-0.35174957 -0.01693832 -0.22731033
-0.07526830 -0.01653711 0.29008788
0.49022961 -0.09215555 0.37791163
-0.03322941 0.19425805 -0.22114952
0.38633174 -0.36182222 0.14948979
0.23291861 0.90183431 -0.16402863
-0.16652392 -0.19315596 -0.29707339
-0.39989251 0.73375976 -0.04855077
-0.27515593 -0.35746014 -0.15184903
0.09992117 0.24652423 -0.19479527
-0.30385098 -0.06759239 0.40488255
0.19694303 0.04672313 0.13013683
0.12007438 0.09470376 -0.28798276
0.45170048 -0.72070968 0.02882751
0.21809515 -0.01176480 -0.30161935
0.23530635 -0.31582546 -0.22503325
0.02020371 -0.09438802 0.37622929
-0.35646433 -0.22367547 -0.33910549
0.17103620 -0.44111437 -0.54983068
-0.04876602 0.03906412 0.26784199
0.27626184 0.08425273 0.10696700
-0.29883587 -0.81922704 0.18327840
0.17919832 -0.05240273 -0.38221604
-0.25217468 0.08040803 -0.09824292
0.34841830 -0.40927649 0.23422794
0.25038153 0.11875490 -0.08783741
-0.31488258 0.66184992 -0.05430163
0.09696425 -0.16056702 -0.38975191
-0.38184631 0.66050005 -0.04338622
0.27670452 0.02382778 0.26094705
-0.04089895 -0.06999163 0.38367778
-0.45648208 0.46239397 -0.10831108
-0.35440779 -0.12516971 -0.22613902
-0.07236623 0.09287271 0.02224222
0.13759406 0.17008750 -0.15340231
-0.15704687 -0.06198198 0.46744150
-0.29641303 -0.25531721 -0.33234638
-0.26540133 -0.20442820 0.44352549
0.35088778 0.16029361 -0.09860119
-0.18394150 -0.04460195 0.45957249
-0.02865035 -0.01178471 0.35364407
0.45293552 -0.81178129 0.05892964
-0.23250718 -0.29427552 0.31940252
-0.02070204 0.02974750 0.31125224
0.33976939 -0.42431566 0.21610613
-0.23734242 0.16362250 -0.12809281
0.24672182 -0.10558286 -0.39608634
0.07595861 -0.16378868 0.38426650
0.06358901 -0.07417141 0.27997577
-0.41904050 0.42383868 -0.10141817
-0.34810159 0.11112469 -0.07705352
-0.30848303 -0.43112487 0.06870300
0.07548717 -0.01116194 0.23968621
-0.07123189 0.17149870 -0.19337589
0.47955817 -0.71612734 0.04813613
0.08631926 0.17221752 -0.12715033
-0.32046545 -0.05184906 -0.27312142
0.28474522 0.06361257 -0.02728775
0.28162634 -0.28248554 -0.12948874
-0.26279950 -0.26548141 -0.39691079
-0.32526565 -0.06589818 -0.18303491
0.44566071 0.01809545 0.27597928
-0.14936405 0.66498524 -0.14724562
-0.48916182 0.79454976 0.09347121
-0.35548633 0.20485416 -0.23543985
-0.36123332 0.07779292 0.17058767
-0.31550273 -0.40294290 0.38446152
0.01662213 0.21426158 -0.31583613
-0.37908566 0.34550264 -0.13772532
0.22576024 0.61648762 -0.14129630
0.29528409 0.10288446 0.08926046
-0.18382104 0.10024282 -0.10976496
0.11117354 0.45715529 -0.20636576
-0.17637479 0.05269168 0.04680648
-0.37386030 0.04976803 -0.03111615
-0.30381528 0.01970911 -0.17350464
0.27265868 -0.04373862 0.36576539
-0.27445996 -0.16984008 0.52626222
0.09369802 0.09776090 -0.18735524
-0.04247538 -0.47293252 0.29981077
-0.29666764 -0.21187335 0.44322193
0.32775310 -0.29404429 -0.29550785
0.44815767 -0.20943946 0.19409443
-0.25036284 0.13287508 -0.18289056
0.26310468 0.00216009 -0.35722017
0.21228063 0.13497998 -0.08833656
0.18590300 -0.19521925 -0.36849409
0.39247942 -0.02207080 0.28297627
-0.00604735 -0.08235405 0.50349575
0.17035805 -0.04775109 0.24629192
0.22964959 0.05410815 -0.02779389
-0.13436675 -0.05073185 0.47193009
-0.25931114 -0.02374815 0.25184339
-0.41820747 0.11286352 -0.19322084
0.29590449 0.58297288 -0.18340594
-0.19726565 0.12709907 -0.04999130
-0.43223435 0.75562751 0.03243431
-0.36388958 0.52280772 -0.12085835
-0.27599528 0.11732914 -0.06453371
0.14080085 -0.24730226 -0.46182388
0.18713723 0.22753441 -0.23575293
-0.18421951 0.72855753 -0.08796595
0.45642287 -0.59886652 0.08785099
-0.32759646 0.06893684 -0.16221303
-0.28239658 -0.06993915 0.35411578
0.27578959 -0.27103281 -0.47135431
-0.32344049 0.00208185 0.19225360
-0.26515493 0.08653556 -0.16763578
-0.08845709 -0.00004478 0.39812869
-0.29957613 0.07516507 -0.12497996
0.37805092 0.01782410 -0.01711024
0.20907956 -0.14124946 0.36461520
0.43934751 -0.56701845 0.07750794
-0.13182117 -0.08371941 0.36148888
-0.38263533 0.01919359 0.09793538
0.20541461 0.23675242 -0.22481696
0.08783557 -0.02394665 0.29576331
-0.15869188 0.10597695 -0.09339291
0.33755422 0.05647842 0.30813128
0.05927701 0.00004234 0.22829004
0.20332879 -0.06627924 0.38113862
0.00327357 0.10453171 0.01328268
-0.30721492 0.10637984 0.05691844
0.23534140 -0.08846322 -0.41032642
-0.39811659 0.57151634 -0.09300479
-0.34456891 0.32999432 -0.04894451
0.02757597 -0.05805254 0.43783164
-0.28638029 -0.58748567 0.24834551
0.06150715 0.70206726 -0.19521615
0.20575047 0.36658487 -0.20513278
-0.33273256 -0.39589924 -0.36452812
0.01411123 0.12089129 -0.01546305
-0.20761296 0.44170973 -0.17595258
-0.18254218 -0.61141068 0.28056157
-0.20920457 -0.91383290 0.20082165
-0.24788097 0.08374728 0.04598677
0.19152528 -0.28078392 -0.26015183
0.46674654 -0.41226009 0.14497814
0.24442804 0.57210189 -0.07740762
-0.07237218 0.01772230 0.26574802
0.16192062 -0.00698443 0.30792040
0.29615262 -0.13219507 0.32670051
-0.14383638 0.87033826 -0.13053507
0.16142328 0.00122440 0.33648157
0.16495202 0.22915880 -0.18272409
-0.38995939 0.63236475 0.00593284
-0.15226595 -0.20246725 -0.40624547
-0.43107921 -0.46219844 -0.43026865
-0.15104181 0.47930279 -0.16007626
-0.14113015 0.09533177 0.09269980
-0.33892500 -0.26666006 -0.30183300
0.31664750 0.63359624 -0.11768405
-0.38068438 0.11335421 -0.03391462
0.15535815 -0.03644307 -0.36719567
0.18375483 -0.23347361 -0.39700449
-0.22148727 -0.17036363 -0.32005376
-0.32974666 -0.41436329 -0.38595963
-0.26142254 -0.64585960 0.29788768
-0.36939883 -0.02178402 0.15492630
-0.10383892 0.01067339 0.36546898
0.15268302 0.67415744 -0.19265476
-0.39211941 0.41979930 -0.15630047
-0.16875824 -0.18049173 0.39191246
0.15050986 -0.46190411 0.25346982
0.22330645 -0.04812013 0.35758245
0.27563816 0.55387896 -0.14831612
0.29081640 0.58428591 -0.16320863
0.09829622 0.71910614 -0.18255180
0.43313992 -0.44089401 0.02050461
-0.06907393 -0.51123089 0.24502800
-0.09782795 0.16456807 -0.18862826
0.25566125 -0.25146687 -0.18358153
-0.29783311 -0.44806892 -0.39348251
0.18321203 -0.14764234 -0.47151273
0.14077929 0.02350056 0.10280658
-0.42460507 0.46796530 -0.05309074
-0.30763668 -0.51214659 -0.38361347
-0.25238764 -0.42855483 0.08260891
0.25203440 0.10315585 0.03705774
0.34577519 0.65005624 -0.13032487
-0.37063181 -0.58984607 -0.52054203
0.05799016 0.12216716 -0.03923763
-0.35758048 0.58888650 -0.00611226
0.12866142 -0.52655035 -0.69890207
-0.32488060 0.25501078 -0.19989547
-0.20741998 -0.81141078 0.28327560
-0.19127613 0.02653002 0.21797840
-0.17919609 0.44215918 -0.18223220
0.14299603 -0.24420941 -0.54694116
0.45062226 -0.40379772 0.14576420
-0.23570669 -0.03486240 0.32905585
-0.31291524 -0.36754036 -0.11664473
0.15792499 0.18656990 -0.20430815
-0.43050450 0.59613723 -0.01242453
-0.11717726 0.14804347 -0.05172474
-0.30418521 0.89690322 -0.01023544
-0.24274926 -0.14027482 0.49128729
0.23010758 -0.05941938 0.29722774
-0.47334942 0.82929516 0.08456270
0.22039905 -0.02088932 0.25693429
-0.32578737 0.04978006 0.15418740
0.24742836 -0.36634976 0.23466904
-0.27075210 -0.09188166 0.42473119
0.37543994 -0.44007662 -0.00739732
-0.31973240 0.07143372 0.18211634
0.29073009 0.42932460 -0.16470322
-0.08599563 0.02485012 0.25737590
-0.37669224 0.13344927 -0.22408199
0.26733139 0.57047015 -0.17442527
-0.35688886 0.54197747 0.01393201
-0.06461739 0.03915799 0.08836444
0.30079210 0.00870893 0.29775697
0.48031464 -0.24775949 0.28885126
0.11353084 0.12252820 -0.03070112
-0.36960620 0.38162979 -0.06500645
-0.05471013 0.19225632 -0.23154585
0.01998894 0.19770710 -0.26530069
0.33617958 0.08135253 -0.10902993
-0.29375601 -0.54862934 0.23925404
-0.35822815 -0.60125107 -0.41839111
0.07474960 0.15249178 -0.09598760
-0.42064583 0.70964253 -0.01641388
-0.25184676 0.65206379 -0.04508816
-0.09909109 -0.15391447 -0.37627709
-0.35313490 0.35196161 -0.09158015
0.19269609 -0.27574453 -0.32749355
-0.12725717 -0.44143984 0.34876579
0.23278742 -0.49205968 -0.58907682
0.42535380 -0.65883410 0.07988991
0.19427763 0.64496130 -0.09672983
-0.48228610 -0.50087219 -0.38290101
-0.38211295 -0.55485773 -0.41535550
0.24783310 0.95345312 -0.12885571
-0.18821435 0.10745286 0.01923026
-0.32306641 -0.59649807 0.26105845
0.18713032 0.20507090 -0.12147829
-0.37397996 0.24822189 -0.09869307
-0.12069325 -0.19413197 -0.32037735
0.11835670 -0.31098515 -0.57531416
-0.10840674 0.18482652 -0.16419262
0.27940515 -0.00765364 -0.33652994
-0.39590013 0.35050672 -0.21328160
-0.01387309 0.12843199 -0.08243887
0.06708554 0.24381408 -0.25786698
-0.16111425 0.08791293 0.12397680
-0.34583965 0.21639805 -0.16942763
0.43872586 -0.07951175 0.21400590
-0.36492711 0.29541829 -0.18785793
-0.33841410 -0.32167405 -0.09423418
0.48046005 -0.41933560 0.06630570
0.04144354 0.16998088 -0.31884688
-0.25985029 0.03370100 0.16179813
0.34740502 -0.11656875 0.23708509
-0.22517477 -0.03091045 0.36152297
-0.27551031 -0.57987529 0.31803095
0.22007135 0.34131980 -0.23398343
0.29401189 -0.28386542 -0.30785316
0.02812464 -0.16420548 -0.42832690
0.19441165 -0.35479283 -0.54602605
0.45820856 -0.38728470 0.13782014
-0.27777964 -0.42761013 0.01211183
-0.27915367 0.62887061 -0.04739650
-0.27505237 -0.81832093 0.25993860
0.17334095 0.07139574 0.13403133
-0.31172353 -0.36173099 0.31497270
-0.32576635 -0.06503817 -0.27180707
0.20155279 0.13460542 -0.34173763
-0.24190260 0.15007737 -0.15291628
0.27597320 -0.00240608 0.31959051
-0.34652007 -0.05156459 -0.23110281
-0.01234435 0.70816499 -0.14610718
0.23839198 0.48910591 -0.19851190
-0.35975629 0.09963022 -0.11383759
0.24930429 0.79539055 -0.13227633
-0.32693261 -0.61187053 0.22190247
-0.33494672 0.14474463 -0.13815413
0.47557345 -0.39190221 0.15336695
-0.32324234 0.70871669 -0.10421397
0.37998337 -0.38338107 -0.08900062
-0.32782051 0.83369416 0.02117497
-0.28322995 -0.43654555 0.17153458
-0.19371378 -0.06929693 0.46564120
-0.05007020 0.46803674 -0.19148707
0.42167500 -0.81823981 0.11659016
-0.19783169 -0.22465365 0.36083472
0.12402033 -0.07392748 0.39219385
-0.27679804 -0.90171897 0.29391426
0.13362341 0.18443310 -0.20422602
0.17424291 -0.47482088 -0.61353964
-0.39075291 0.63045311 0.04936905
0.19543265 0.21999353 -0.24331485
-0.32316259 -0.03800034 -0.20309159
0.18395805 0.18154226 -0.11722056
-0.35026386 -0.38259339 -0.06030332
-0.17491688 0.03118400 0.17730837
0.15167323 0.19757925 -0.19237056
-0.37079996 -0.18192990 -0.33162761
0.02895698 0.45394167 -0.18838939
-0.31519541 -0.45906088 0.11479129
0.09054319 0.00746640 0.09661625
0.44937694 0.01331987 0.27008146
-0.29760563 0.24192405 -0.14237437
0.02731060 0.07307821 0.14137575
0.35020539 -0.03451006 0.44152254
0.09283609 -0.03218163 0.27634269
-0.30362427 -0.37780982 -0.35086483
-0.04697837 0.02015817 0.23257069
-0.02410942 0.21698619 -0.19017647
-0.21442209 0.09134243 0.11563225
0.11377561 -0.43345276 0.26129204
-0.37802446 0.00628919 -0.14553197
0.18886815 -0.32721949 0.25286263
0.23858306 0.18702501 -0.37537205
0.29962906 0.10421607 -0.11076069
-0.31608325 0.30145937 -0.12013089
-0.38865671 -0.32229161 -0.40974206
-0.38826987 0.60798591 -0.07298721
0.06379874 0.68222040 -0.13141498
0.21191660 0.73027879 -0.17379555
0.20693922 0.02097932 0.01858836
0.14229450 0.19878009 -0.24864912
-0.10762877 -0.04948039 0.40254080
-0.33863309 0.03132964 -0.00625893
-0.22839014 -0.29872337 -0.31937450
0.30689746 -0.34110701 -0.13249612
0.41278037 0.04516094 -0.02595043
0.26740003 0.61685807 -0.14493665
0.16994578 -0.44744241 -0.61029500
0.25689083 -0.02231131 0.32722455
0.17002043 0.89578521 -0.18504775
-0.41259524 0.61559552 0.00759439
-0.20229335 -0.44428819 0.39461565
-0.32027629 -0.37484586 -0.04308886
-0.12186605 0.24204087 -0.21826358
0.21018983 -0.23558989 -0.44152993
-0.24979973 -0.75085515 0.30693001
0.02451244 -0.22667345 -0.40601081
-0.06202643 0.76461571 -0.07862768
-0.32880008 -0.45917153 0.27985466
-0.18381074 -0.10066175 0.49327230
-0.29208705 -0.55686027 0.37370652
0.26702699 0.57317549 -0.19784965
-0.03113217 0.87632805 -0.09879733
-0.12928943 -0.00423426 0.36453450
-0.11809263 0.20694676 -0.26872742
-0.45017651 0.85115826 0.03982785
0.50676727 -0.36292592 0.18031241
-0.39692667 -0.07222691 -0.20579696
-0.25117475 -0.11812367 -0.30200726
-0.36471516 0.21559545 -0.12563941
0.25050491 -0.37928793 -0.44913071
0.34844491 0.15983433 -0.06696701
-0.29069448 -0.35207722 -0.26998079
-0.03767210 0.19581664 -0.19408071
0.21451166 0.10413207 -0.22480629
-0.29996985 0.70115238 -0.08944783
0.43533865 -0.46259576 0.13799992
0.02859163 0.16744909 -0.10985568
-0.35737291 0.15534732 -0.18773623
-0.35368136 0.09715329 -0.22613603
-0.26338959 -0.43705010 0.31625706
-0.33341643 0.83172065 -0.02685570
-0.10156029 0.16448238 -0.16291118
0.32471347 0.09051323 0.02279739
0.54561329 -0.76862884 0.00483907
0.22227377 0.29194790 -0.29648811
0.03595940 -0.06002251 0.44027883
0.23342352 0.90342575 -0.16967022
-0.22539468 -0.30368394 0.38215947
0.13695568 0.47829580 -0.21358898
0.11360379 -0.42497191 -0.59822732
0.18308125 0.00052129 0.31293350
0.38489020 -0.00257930 0.16538475
-0.33047304 0.05677811 -0.01935533
0.31329033 0.08149096 0.04909699
-0.28993905 -0.18408214 0.49641496
0.32208934 0.18931291 -0.31957775
0.40248153 -0.02433418 0.25763029
-0.34350866 0.14884281 -0.06868575
0.29562560 0.15458824 -0.06718709
-0.41426432 0.72397572 0.05073223
0.14299731 -0.33167982 -0.55896276
0.15667324 0.06167153 0.13067412
0.31096971 -0.42150709 0.19372801
-0.10308286 0.15617290 -0.03293081
0.27804720 -0.22415964 -0.38632452
-0.27863145 -0.67247677 0.28916764
-0.38342485 0.07747360 -0.12059893
-0.24608865 -0.42707637 0.29728550
-0.35209170 0.03930274 -0.08819211
0.36973596 0.03794407 0.30188715
0.00610373 -0.19180527 -0.38100207
0.18335298 0.05874090 0.04483828
0.24890123 0.04713081 -0.21243191
-0.38709402 0.08143086 -0.00166818
0.43230513 -0.36063263 -0.01384815
0.40328291 0.02931578 0.09404162
-0.33711025 0.01107989 0.19643103
0.29062918 -0.09704007 0.28335708
-0.20337525 0.11346280 -0.03023982
0.43293580 -0.73530483 0.05222984
-0.26584211 -0.32072860 -0.18895122
-0.07962348 0.70961684 -0.18795350
-0.27889070 -0.27147064 -0.34749770
0.12260578 0.14969990 -0.10505409
0.19687343 -0.01155092 0.23622362
0.08614992 -0.40384662 0.26195747
0.43607873 -0.53930938 0.12807098
-0.15964290 -0.49125281 0.30189204
-0.31353632 -0.37472743 -0.17567238
-0.37077329 0.48515889 -0.11991918
-0.25912696 -0.03319533 0.48732984
0.40351963 -0.69850779 0.13917117
0.25607747 0.50506216 -0.25206053
-0.39209855 -0.42491165 -0.39179069
0.48141983 -0.04600021 0.33780581
0.42142740 -0.03413152 0.36691350
0.47152701 -0.24324787 0.18181263
0.18241443 -0.46008286 -0.58530140
0.39365330 0.03690271 0.24285661
0.42004576 -0.50514793 0.04919535
-0.48931217 0.80343693 0.05831051
-0.01229188 0.21833614 -0.21492387
0.44262117 -0.50527942 0.13486731
0.48678350 0.04884066 0.27946424
0.38815922 -0.42865521 0.02470111
0.11865970 -0.23439403 -0.46321291
-0.03472519 0.06896063 -0.01769540
0.21823387 -0.54999399 -0.59982735
-0.18245137 -0.03467876 0.40771723
-0.39242056 0.39416069 -0.10016745
0.28020936 0.11817455 -0.35475451
-0.36418274 0.24886985 -0.08664823
-0.28270155 -0.07537072 0.41370034
0.49873289 -0.29022485 0.15034193
-0.20319654 0.06006313 -0.05163890
-0.18302777 0.10344363 -0.17776749
-0.05677914 -0.19993530 -0.41221023
0.39770353 -0.23380017 0.26944214
-0.35220164 0.87066638 -0.02537122
0.24670981 -0.02895045 -0.25929523
-0.05215633 -0.04899370 0.38506311
0.23979023 -0.25774202 -0.43082947
0.43089363 -0.05350824 0.30995166
0.37643671 -0.38946471 0.00112851
-0.01259221 -0.11639503 0.43825018
0.47570339 -0.39839023 0.18651272
0.35877240 -0.42577747 0.05686702
-0.18822236 0.05521384 0.24968968
0.02926482 0.12587428 -0.13253477
-0.34609458 -0.34316537 -0.21336573
-0.27163339 -0.83886504 0.25736737
0.15330788 -0.49624527 -0.58811510
0.19876836 0.17186151 -0.03030260
-0.07674892 0.19575182 -0.23006089
-0.30215704 0.12969257 0.01126537
-0.31581625 -0.29749185 -0.22450240
0.33922186 0.00851943 0.34544742
-0.17185032 0.04834402 0.32429957
-0.35402381 0.41985396 -0.06245144
0.26734439 -0.22978079 -0.43786770
-0.06904686 0.48698986 -0.24117549
0.47524589 0.01313007 0.22694446
0.30109799 0.44087470 -0.27328101
0.03950586 0.05903468 0.08578303
-0.27038512 -0.79237866 0.23314299
-0.29317737 -0.11871167 -0.29054058
0.28260574 -0.07509657 0.25582635
0.22344987 0.15608642 -0.07490975
-0.34144107 0.16660377 -0.23124233
-0.27753344 -0.22897004 0.40421408
0.17090741 0.08502384 0.04800355
0.23419692 -0.42959249 -0.60438347
-0.38352460 0.89409685 -0.06946120
-0.27941856 -0.40368846 0.29472488
-0.31993964 -0.01574302 0.26881206
0.28141522 0.73798084 -0.21311668
-0.15058281 0.01910064 0.22470193
-0.16995238 0.20441450 -0.10696537
0.08146895 0.13021815 -0.17720374
0.33789620 0.14337814 -0.15080446
-0.35441965 -0.32231632 -0.06736024
-0.20045993 0.69388658 -0.08715507
-0.43179423 0.63225418 0.04216971
0.42102602 -0.14906140 0.26172334
-0.28367919 0.63221854 -0.06997318
0.37212479 -0.08038794 0.27770776
0.18582287 -0.32215372 -0.48532826
-0.09205515 -0.17378564 -0.39873189
-0.12711872 -0.49803346 0.34075308
-0.22715953 -0.45027241 0.14113642
0.28106937 0.48732433 -0.21808323
0.20245960 0.86822832 -0.18567513
-0.32029155 -0.61055064 -0.46717036
-0.31505182 -0.64836329 0.30268693
0.29624820 -0.00101708 0.20752396
0.27299443 0.65293103 -0.17786831
0.06769885 0.12517822 -0.09693740
0.36398932 -0.39004549 -0.07622905
-0.35069382 0.12950230 -0.11026537
-0.33597767 -0.02039167 -0.19022381
0.12320594 0.17209417 -0.30532381
0.29446316 -0.29751018 -0.28704911
-0.36180389 -0.56566489 -0.55054420
-0.46758020 0.64405090 -0.06581860
0.22637993 0.10968582 -0.28287381
-0.35676417 0.36902675 -0.06454162
-0.42544243 0.67630047 -0.05174883
-0.24595907 -0.71138722 0.24649875
-0.36884630 -0.49031758 0.32872444
0.22902517 0.92853314 -0.12603551
-0.13484757 0.65818387 -0.06335035
-0.16730832 0.08707359 0.10276084
0.32132196 0.51698458 -0.14072506
0.17047176 0.05159279 -0.27435353
0.01471697 0.41826004 -0.20009986
-0.02074325 -0.16776957 -0.35713744
0.30732018 -0.39522585 -0.14442256
0.17923102 -0.06487180 -0.35974342
0.04117903 0.12100641 -0.18214853
-0.31905025 -0.18688306 -0.27968246
0.29171008 0.34699363 -0.18715349
0.24294131 0.23263659 -0.31486970
-0.28324264 -0.88389552 0.21285163
-0.30522686 -0.52702653 -0.48069054
0.33430675 0.06623068 0.21476804
0.33806136 -0.30188590 -0.29513985
0.41543427 -0.01384954 0.37229192
-0.45887873 0.42486343 -0.04957087
-0.26806828 -0.35317397 0.39859676
0.03193168 0.06059157 0.10802045
-0.35106874 0.16286100 -0.13621783
-0.25848392 -0.18460818 -0.31773621
0.45549732 -0.34042853 0.12913391
-0.00202010 0.04975792 0.13701923
-0.26672360 -0.70599389 0.28667378
0.23620480 -0.42498332 -0.55668777
-0.34824482 -0.02996205 -0.31374609
-0.43992522 0.08358265 -0.13077612
-0.24489257 0.05020096 0.21445210
0.21761978 0.00849989 -0.38954341
-0.18752655 -0.17543788 -0.29898143
-0.02957949 0.05767292 0.18892257
-0.27981481 -0.30764684 0.42878115
0.06759842 0.06589794 0.08615690
0.21789972 -0.27012762 -0.24038036
-0.23464514 0.08746399 0.09859848
-0.38280070 0.66640228 -0.06515993
0.07292835 0.15325549 -0.15700643
0.19531487 -0.24220231 -0.47873586
-0.37155324 -0.57413429 0.34152347
0.38232607 -0.21623133 0.21639408
0.10465383 0.01348163 0.23511584
-0.12801029 0.13303024 -0.12080798
-0.01450271 0.15121575 -0.09759025
0.19728705 0.61491609 -0.15108471
0.04384017 0.21014608 -0.17989127
-0.32993126 -0.46078566 -0.01501023
-0.31344432 -0.77052790 0.28031355
0.15547806 -0.12517650 0.41899443
0.20074625 0.40285200 -0.22994752
-0.18781714 -0.03301958 0.49521041
0.13866577 0.18663110 -0.18870887
-0.00220188 0.00147835 0.31631422
0.14528827 0.14120795 -0.16688523
0.52326250 -0.59300357 0.13314976
-0.07518830 0.71178997 -0.15721855
0.33676702 0.12106540 -0.06283820
-0.39379641 0.22048803 -0.14944641
-0.23694290 0.07974648 0.00256433
-0.09008474 -0.07527630 0.34021759
-0.32882425 -0.21735337 -0.27171066
0.03750112 0.07316529 -0.01357595
-0.22399634 0.00948540 0.26308322
0.39279255 0.10268362 0.04373060
-0.33665681 -0.29816815 -0.27952832
0.04582293 -0.03325963 0.24197276
-0.48755121 0.65412080 0.04353271
-0.28341636 -0.47956160 0.03641284
-0.24783772 -0.54626942 0.30072498
0.21412361 0.43534553 -0.23075809
-0.31400850 -0.31150925 -0.40813804
-0.36727706 -0.24690893 -0.34548384
-0.30377230 -0.52546906 0.30278903
0.06596819 -0.02866031 0.35065764
0.23061799 -0.05447609 0.22492148
0.24864362 0.49660367 -0.11941272
-0.38643774 0.04651691 0.09402896
0.24566160 -0.51359659 -0.72669345
0.46956703 -0.78220850 0.02412928
0.14942913 -0.47237626 -0.61933005
0.33416682 -0.39205697 0.01694343
-0.40924901 0.40564322 -0.04196007
-0.24399748 -0.05600548 0.28227705
0.35423216 0.11886899 0.14039312
-0.31092030 -0.31801686 -0.47197837
0.16062137 0.25065458 -0.23031193
0.26124826 -0.38316110 0.17824636
0.35640940 0.16040303 -0.14208736
0.26033461 0.54056615 -0.24139228
-0.26585838 -0.04645872 0.23105688
0.08344594 -0.05562207 0.42377496
0.17227045 0.12141581 0.02191987
-0.25072995 0.80769718 -0.03506175
-0.32580498 -0.56768888 0.29603910
-0.38640770 -0.30423206 -0.26433498
0.29708666 -0.33495280 -0.15682849
-0.04020074 -0.08713682 0.46164900
-0.28967330 0.09972196 -0.04876565
-0.21310410 0.01234610 0.30692875
-0.16503558 0.01457764 0.25366390
0.23387648 -0.07648937 -0.48419046
-0.08720748 0.08770290 0.09532075
0.21231121 0.19088624 -0.11452973
0.26295948 0.79510874 -0.11385745
-0.43592161 0.42923182 -0.10611495
0.23996298 0.73799199 -0.10801981
-0.33858922 -0.38290912 -0.09584413
0.02538055 -0.40746766 0.26124638
-0.01205485 0.16754293 -0.09612883
0.26274604 0.47063574 -0.29894772
-0.25114375 0.07147790 0.11232728
-0.06287214 -0.04767650 0.22018902
0.12575376 0.07498375 -0.03748137
0.13222063 0.09092712 -0.09872946
-0.12153140 0.16008578 -0.18830651
-0.29580638 -0.44542855 0.18539862
0.44201183 -0.43347523 0.14653133
0.16176903 0.68743128 -0.15209037
0.04490512 0.15457527 -0.27866811
0.33361238 0.71925253 -0.12611905
-0.30859181 -0.29289186 -0.28267276
-0.13873409 0.92325491 -0.10451477
0.10819839 -0.02806763 0.48344988
-0.33860940 0.68282229 -0.10740964
-0.29341298 -0.37005958 -0.27110606
-0.04291893 0.07035227 0.11211234
0.53736794 -0.10192058 0.32366616
0.13128126 -0.17106621 -0.45670789
-0.19740848 0.11417870 -0.03479142
-0.31146300 -0.42632934 0.32340056
0.11128705 -0.38358238 0.23465399
0.28037545 -0.14573541 -0.38872576
0.44406530 -0.00435643 0.26908368
0.22548020 -0.24948826 -0.45200974
-0.38456383 0.10250595 0.05647127
-0.46585703 0.57435507 -0.04024137
0.27423641 -0.13347545 0.26571727
-0.12788515 0.07657027 0.19500084
-0.20232618 -0.20042774 -0.33924973
0.43459499 -0.00461577 0.17801116
0.31391287 0.70424145 -0.14224014
0.25967184 0.68591386 -0.06912523
0.11004006 0.03124427 0.12278619
-0.33676189 0.02477459 -0.23711908
0.16539012 -0.22704163 -0.40241396
0.23671299 0.42973632 -0.27413130
0.35435736 -0.40536776 0.20543317
0.30208907 -0.30207586 -0.18933469
0.52469635 -0.85727459 0.02883378
0.39604601 -0.11980177 0.28006017
-0.36065027 0.06445174 0.04001777
0.26378062 0.35500255 -0.15503001
-0.15948051 0.13806961 -0.16610661
-0.34163821 -0.07258855 -0.22975972
-0.35986918 0.10482110 -0.18517369
0.14201871 -0.31125540 -0.54890347
-0.37054449 -0.01564660 -0.16604474
0.50975752 -0.52410990 0.06313036
-0.34492919 -0.23961790 -0.30265981
0.34021741 -0.38632098 -0.02133439
-0.38042033 0.13399737 -0.17502725
0.28823820 0.33952597 -0.16838792
