-0.192746 0.664911 -0.099364
0.105186 0.203363 -0.237314
0.190233 -0.085011 0.372001
0.289715 0.637941 -0.131160
-0.188728 -0.420902 0.325825
0.180578 0.116346 -0.320977
-0.023990 -0.021039 0.370828
-0.272229 -0.525001 0.346216
0.025616 -0.089910 0.368991
-0.364406 -0.228098 -0.343186
0.179419 -0.120870 -0.451695
0.299327 0.771452 -0.110177
-0.288562 -0.376501 -0.076939
0.462425 -0.404834 0.106320
0.147668 0.123109 -0.084580
-0.297232 -0.225377 -0.322232
-0.286117 0.090697 -0.003610
-0.428308 0.617992 -0.050395
-0.276442 -0.896695 0.192767
0.199816 -0.401070 -0.506454
0.450234 -0.343761 0.124453
0.211705 0.138671 -0.130423
-0.235062 0.139433 -0.066789
-0.026972 -0.032153 0.402175
-0.065098 0.152209 -0.170653
0.305602 0.053946 -0.046286
0.258471 0.070622 0.116337
0.258132 -0.017755 0.292905
-0.306118 0.132230 -0.045856
-0.334424 0.319838 -0.135167
0.296105 -0.103788 0.295725
-0.272564 -0.393802 0.387423
0.100757 -0.005618 0.324917
-0.355470 -0.295878 -0.382005
-0.076522 0.036348 0.214099
0.042883 -0.142252 -0.390612
0.037402 -0.444263 0.264871
-0.004640 0.005802 0.231884
0.171795 0.071110 0.050275
0.469407 -0.303741 0.224194
-0.383516 -0.555100 -0.489871
0.104296 -0.001654 0.313369
-0.264851 0.163878 -0.134606
0.213425 -0.114632 0.352367
0.415763 -0.283101 0.158652
-0.267016 -0.570794 0.333020
0.150891 -0.438085 -0.553921
0.269303 0.176809 -0.162681
0.135963 -0.181245 -0.420772
-0.214562 0.146310 -0.153509
-0.317560 -0.030917 0.176075
-0.412622 0.844642 0.012701
-0.412560 0.385821 -0.078110
0.116723 0.036351 0.146818
-0.222216 -0.349088 0.375799
0.164568 -0.231202 -0.499076
0.167348 -0.141542 -0.453329
-0.223125 -0.212516 -0.324649
0.202118 -0.344502 -0.567488
-0.325190 0.085316 -0.136601
-0.074865 -0.050036 0.387819
-0.222868 -0.259539 0.417033
-0.283063 -0.419113 0.011407
-0.071667 -0.455178 0.296508
-0.330703 0.442615 -0.112038
0.283018 -0.322013 -0.260276
0.134741 0.163068 -0.199384
-0.357465 0.018437 0.158002
-0.085633 -0.443920 0.316049
0.175242 0.110797 -0.000985
0.342840 -0.400695 0.164047
0.092307 0.137197 -0.068095
0.491229 -0.311627 0.187783
0.489722 -0.378966 0.174798
-0.165830 0.108008 0.011340
0.456963 -0.487002 0.081396
-0.362654 -0.116083 -0.293018
0.410727 0.001936 0.095948
0.282956 0.047387 0.118269
-0.337396 0.176355 -0.190232
-0.188030 0.428703 -0.161313
0.244651 -0.293409 -0.320008
-0.164777 0.064216 0.130651
0.281583 -0.325666 -0.227635
-0.282708 -0.739232 0.290347
0.232357 0.718943 -0.177314
-0.416098 0.412853 -0.095773
0.173655 0.021311 0.186682
0.045768 0.020873 0.251829
-0.268544 -0.440723 0.158999
0.316574 0.707253 -0.130776
0.278600 0.542095 -0.226415
-0.361745 -0.301822 -0.381999
0.147982 -0.156389 -0.388416
-0.361039 -0.292471 -0.377551
-0.012371 -0.003306 0.252682
-0.336629 -0.509383 -0.485151
0.208432 0.169762 -0.253368
0.167673 0.158986 -0.187244
-0.022278 0.151136 -0.167385
0.156907 0.883931 -0.120056
0.113509 0.452940 -0.187119
-0.315082 0.680079 -0.065116
-0.404419 0.483174 -0.093989
-0.030366 0.202599 -0.235358
-0.247441 0.008253 0.220265
0.475440 -0.522341 0.079190
-0.246909 -0.408925 0.301160
-0.237084 -0.657346 0.294837
-0.302733 -0.475293 0.296390
-0.219694 0.086687 0.069506
-0.341356 -0.350566 -0.177546
0.066969 -0.077138 0.406914
-0.218437 0.091445 0.057085
0.463643 0.020974 0.253381
0.267252 0.722077 -0.193131
-0.377000 0.170746 -0.123090
0.153100 -0.399945 -0.588136
-0.125283 -0.450906 0.285520
0.405241 -0.206377 0.233906
-0.263877 -0.031586 0.230152
0.223966 0.498737 -0.189944
0.190732 0.213538 -0.296178
0.055684 -0.069925 0.452625
-0.306389 -0.860816 0.223381
-0.054185 -0.048680 0.379672
0.269304 0.186203 -0.270943
-0.359732 0.106878 0.016669
-0.226881 0.660382 -0.092247
-0.365486 0.539068 -0.068029
0.157036 -0.239414 -0.446134
0.150622 -0.367967 -0.515589
-0.301514 -0.279284 -0.297939
0.185408 0.713923 -0.149348
0.330189 0.784565 -0.155518
0.361923 0.009079 0.219687
-0.295131 0.092101 0.054849
-0.307335 -0.361850 -0.398014
0.217073 -0.513779 -0.625941
0.190568 -0.388095 0.236175
-0.273748 0.071975 0.108435
0.149359 -0.429022 0.226787
-0.301721 -0.295333 0.388761
0.110917 0.203316 -0.258509
0.230861 0.717905 -0.156769
0.354236 0.055032 0.158031
0.139364 0.178563 -0.242109
-0.315171 -0.297751 -0.291475
0.332303 0.112226 -0.006096
-0.175709 -0.165799 0.416408
0.450337 -0.038463 0.215591
0.313932 -0.049151 0.351535
-0.330692 0.017831 0.040801
-0.187248 0.023950 0.244971
0.369381 0.014782 0.184544
0.329110 -0.316444 -0.152662
-0.160142 -0.165585 0.429921
-0.401144 0.619558 0.021911
0.211313 0.050193 -0.293655
-0.256545 -0.433109 0.374578
0.478633 -0.098849 0.239954
0.160449 -0.457580 -0.627977
-0.196136 0.120421 -0.084958
0.147307 -0.536123 -0.624763
-0.061126 -0.171908 -0.337931
-0.003905 0.144530 -0.148662
0.222156 0.322552 -0.209937
0.137092 0.687752 -0.166333
0.234002 0.428033 -0.181454
0.014267 0.869263 -0.106430
0.337780 0.045337 -0.022077
0.435979 -0.677975 0.100464
-0.375418 -0.468229 -0.457052
-0.361161 0.368245 -0.132022
0.102358 0.716252 -0.144126
0.057312 -0.066645 0.369710
0.196317 -0.445870 -0.621702
0.356362 0.010246 0.072638
-0.262168 -0.278557 0.431138
-0.169619 -0.452024 0.334920
0.231898 0.128781 -0.100036
0.153495 -0.220638 -0.469810
-0.242774 -0.822446 0.254516
0.468489 -0.330318 0.214641
-0.063022 -0.095640 0.433446
-0.202517 -0.429578 0.339347
0.061065 0.876653 -0.137605
0.422618 -0.294659 0.221692
0.194082 -0.520998 -0.580461
-0.479572 0.861987 0.022098
0.439780 -0.155119 0.289542
-0.290244 -0.587656 0.248431
0.112203 -0.012488 0.346446
0.315875 0.058269 0.084447
0.388029 -0.026777 0.174632
-0.107026 0.095697 0.042501
0.433703 -0.309221 0.223377
-0.345128 -0.422218 -0.351616
0.196748 -0.409133 -0.510186
-0.381924 -0.291813 -0.340895
0.331100 -0.314225 -0.216508
-0.379601 -0.149551 -0.278916
0.028024 0.157360 -0.183811
-0.287004 0.040008 0.084748
0.370902 0.016771 0.267016
0.227234 -0.381421 0.219344
-0.378710 0.533076 -0.005691
-0.261256 -0.464120 0.244203
0.204990 0.357108 -0.251771
0.182318 0.020024 0.189998
-0.105284 0.199368 -0.233494
0.444292 -0.121718 0.214612
-0.362603 0.014165 0.056268
-0.368065 0.117325 -0.124909
0.203339 -0.051317 0.396376
-0.311123 -0.557287 0.289469
-0.270036 -0.006013 0.329882
-0.283586 -0.729469 0.218256
0.250122 0.158978 -0.329409
0.379045 -0.018611 0.153518
-0.146448 0.005019 0.234993
0.283429 0.347240 -0.242903
0.491180 -0.181939 0.227849
0.269331 0.334977 -0.268899
-0.165432 -0.057138 0.478298
-0.313881 -0.316437 -0.303115
0.441725 0.037492 0.207708
-0.302883 -0.402727 -0.054258
-0.024250 0.186043 -0.258941
0.360858 -0.075499 0.329032
-0.062432 -0.032546 0.333147
0.487507 -0.017219 0.288584
-0.202021 0.105047 0.021273
0.241729 -0.150968 -0.417851
0.442458 -0.028394 0.188815
-0.305103 -0.469515 -0.420863
0.413966 -0.381228 0.018319
-0.224446 -0.302222 0.354895
-0.100924 0.714292 -0.119257
-0.381279 0.046473 0.066171
-0.034769 0.184068 -0.185381
0.304161 0.576025 -0.157883
-0.363724 0.146397 -0.199306
0.491512 -0.241126 0.210027
0.218104 -0.082985 -0.435749
-0.277839 -0.454751 0.218783
0.451701 -0.557152 0.065463
-0.011549 0.067404 0.120019
-0.293315 0.094753 0.048003
-0.381874 0.088815 -0.050441
0.312340 0.159552 -0.120461
-0.401199 0.670325 0.031479
-0.329620 0.178173 -0.114250
0.339317 -0.371355 0.182909
-0.417468 0.432911 -0.092510
-0.118677 0.070920 0.110006
-0.288153 0.047672 0.078271
0.466429 0.014614 0.273627
-0.186346 -0.166230 -0.322440
-0.010505 0.163803 -0.132423
-0.298882 -0.073608 0.363130
-0.383495 -0.399938 -0.402827
-0.110275 0.020723 0.191114
-0.262840 -0.778835 0.279571
-0.399960 0.590545 0.014375
0.406115 -0.441011 0.135478
0.175554 0.041692 0.132313
-0.259778 -0.855647 0.205480
-0.395550 0.189338 -0.150927
-0.245303 -0.685868 0.243307
-0.090855 0.434234 -0.159799
0.381432 -0.403539 0.157989
-0.206890 0.461803 -0.152820
0.370166 -0.113108 0.311814
0.230298 -0.247551 -0.425008
0.286678 0.741258 -0.115747
-0.108492 0.437723 -0.151108
0.367026 0.021195 0.253733
-0.308810 -0.003821 0.099849
-0.284511 -0.736250 0.217330
0.195350 0.208055 -0.256510
-0.312128 -0.274395 -0.283639
-0.332865 -0.354284 -0.181997
-0.324444 -0.047103 0.377800
0.180274 0.010516 0.280648
-0.307725 -0.840591 0.227088
0.286407 -0.094789 0.343057
0.452852 -0.140116 0.297090
0.347104 0.900922 -0.127278
-0.142396 0.027598 0.236414
0.473170 -0.032972 0.263523
-0.052712 -0.030921 0.401815
0.146637 0.161770 -0.195841
0.261939 -0.303140 -0.258171
0.213498 -0.432847 -0.534677
0.485494 -0.273756 0.219881
0.003187 -0.147804 -0.396053
0.077011 0.048952 0.112035
-0.339630 -0.029024 0.173112
-0.367367 0.139239 -0.095942
-0.222096 0.181005 -0.191040
0.457195 0.035133 0.206838
-0.420857 0.827048 0.059871
0.416193 -0.004429 0.329824
-0.306696 -0.240907 -0.342573
0.223807 0.489416 -0.190603
-0.352426 0.012332 0.177612
0.223517 0.152840 -0.102691
-0.178467 -0.183537 -0.362360
-0.131057 0.040276 0.134237
-0.355450 -0.093960 -0.206526
-0.300968 -0.604922 0.312780
-0.385989 0.688076 -0.003923
-0.298271 -0.037085 -0.201412
-0.240606 0.005635 0.229092
-0.091191 -0.160892 -0.338987
-0.039144 0.035914 0.146545
0.381240 -0.005609 0.115071
-0.382780 -0.324410 -0.356244
-0.013197 -0.429898 0.299321
-0.341858 0.088014 0.061942
-0.146881 0.710685 -0.114552
0.169231 0.101567 0.023741
0.223963 0.041519 0.132736
-0.312914 0.209893 -0.150532
-0.359459 -0.419596 -0.442779
-0.310528 -0.309509 -0.262293
0.419153 0.032635 0.221878
-0.347675 -0.312471 -0.392253
-0.367438 -0.247161 -0.349544
0.122206 0.093362 0.043517
-0.383532 0.509399 -0.010848
-0.321727 -0.308788 -0.386006
-0.460967 0.836679 0.077012
0.240326 -0.050597 -0.344676
0.339353 -0.363746 -0.079880
-0.387930 -0.581547 -0.493299
0.435068 -0.403612 0.029108
-0.089066 0.107097 0.013568
-0.375571 0.044459 -0.025253
0.256336 0.193091 -0.313942
0.053347 0.029803 0.165219
-0.415066 0.528526 -0.077338
-0.124868 -0.458596 0.313397
0.376585 -0.016185 0.294585
-0.017132 0.066113 0.124329
-0.052515 0.054546 0.093568
0.403213 -0.005122 0.331505
0.278467 0.059565 0.086042
-0.308816 0.011152 0.058426
0.258457 0.534479 -0.232104
-0.041743 0.063780 0.068729
0.486896 -0.457544 0.157369
0.322053 0.048472 -0.031644
-0.404483 0.290600 -0.126034
-0.295783 0.446834 -0.130800
0.488862 -0.614449 0.067048
-0.113736 0.699170 -0.105148
-0.281986 -0.222953 0.369089
0.324129 0.769643 -0.165612
-0.282772 -0.069543 0.482529
0.180686 0.087996 -0.311825
-0.009095 0.867511 -0.106395
-0.338470 -0.540920 -0.499414
0.345977 -0.372474 -0.063652
-0.280635 0.124957 -0.095929
0.151598 0.726218 -0.164825
-0.262386 -0.195744 0.464036
0.214758 0.221101 -0.238339
-0.342639 0.090418 0.055360
-0.180437 0.160296 -0.190160
-0.016516 -0.147366 -0.370359
0.202415 0.322183 -0.241799
0.021241 0.116366 -0.062269
-0.313245 -0.414394 -0.427897
0.202422 0.443999 -0.193591
0.131777 0.159791 -0.124629
0.203107 0.017718 0.195615
-0.122073 0.137764 -0.064834
-0.270364 -0.806019 0.206002
0.356874 0.027001 0.147767
0.184441 0.078708 0.030209
-0.379411 0.572825 -0.062497
0.150632 -0.182572 -0.415635
-0.086147 0.167018 -0.208917
-0.251172 -0.017432 0.362041
0.330759 0.038152 0.203209
0.225994 -0.053222 0.413118
0.208503 -0.036205 -0.418205
-0.323872 0.005386 -0.248267
0.017882 0.036320 0.146633
0.308003 0.579483 -0.185881
-0.310621 0.845096 -0.012109
0.467444 -0.395744 0.193352
0.483677 -0.022066 0.315088
-0.246569 -0.497188 0.350299
0.296254 0.062168 -0.038988
-0.192116 0.134574 -0.122947
-0.297924 -0.244376 -0.331646
0.183803 -0.386353 -0.496417
0.064250 0.142128 -0.078698
-0.115076 -0.202482 -0.356081
0.227790 0.195947 -0.216535
-0.356805 0.029533 -0.240805
-0.042513 0.005908 0.231828
0.139271 0.440428 -0.212387
-0.082296 -0.030392 0.401785
-0.314851 -0.063377 0.267424
-0.107198 -0.146121 0.388786
-0.324906 -0.381801 -0.331723
-0.287949 0.036660 0.077024
0.417658 -0.423513 0.170806
0.220806 -0.272983 -0.375298
0.157485 -0.061427 0.426822
0.341055 0.018682 0.050358
0.287611 0.844067 -0.107506
-0.087036 0.162197 -0.128520
0.351975 0.105372 -0.127300
0.301703 0.181296 -0.222151
0.179349 0.182512 -0.254206
-0.329878 -0.385216 -0.089876
0.071499 0.701896 -0.137816
-0.240428 -0.013545 0.281882
0.256150 0.114323 -0.334501
0.485795 -0.187689 0.254641
-0.306418 -0.644797 0.298919
-0.217371 -0.244090 0.394914
0.413619 0.067824 0.079938
0.256398 0.853567 -0.144625
-0.357488 -0.136343 -0.225477
0.208422 0.141027 -0.073991
0.126346 0.188596 -0.197397
0.214394 0.467323 -0.194885
-0.214269 -0.221344 0.412377
-0.166740 -0.054069 0.397120
-0.218753 0.151786 -0.167844
-0.360286 0.446944 -0.104313
0.030213 0.703756 -0.169873
-0.373780 -0.207231 -0.322380
-0.027038 0.053991 0.162415
-0.056135 0.442042 -0.194178
-0.204010 -0.205780 -0.343206
0.069978 0.710242 -0.175414
0.080586 0.011466 0.275702
0.288252 0.861071 -0.174295
0.181172 -0.491266 -0.560235
0.079732 0.059113 0.082625
0.142047 -0.007067 0.331644
0.290983 -0.274954 -0.302031
-0.031072 0.200780 -0.229044
0.303057 -0.020609 0.303486
-0.311008 -0.056133 0.248081
0.048397 0.448889 -0.179986
-0.344537 0.439016 -0.051891
-0.367588 -0.453260 -0.455769
0.484788 -0.593805 0.126845
-0.357544 0.239952 -0.172099
0.237082 -0.412439 0.238947
-0.015036 -0.405150 0.281791
0.040965 0.036880 0.145264
0.304164 0.539535 -0.177711
-0.379115 -0.209788 -0.311396
0.197618 -0.163534 -0.382436
0.205667 0.348115 -0.231621
0.188357 0.109815 -0.052803
-0.344302 -0.314913 -0.184835
-0.228836 0.864190 -0.039736
0.108171 0.023329 0.182191
-0.283222 0.030674 0.109720
-0.335847 -0.035487 0.216163
-0.200813 0.125442 -0.029459
0.069056 -0.113562 0.393540
-0.313016 -0.509081 -0.460444
-0.300041 -0.322864 -0.195354
0.250110 0.170934 -0.325793
-0.292435 -0.234675 -0.302202
0.169301 -0.068517 0.383137
-0.272555 0.055141 0.155203
0.208096 -0.531570 -0.653577
0.453655 -0.230972 0.257611
-0.086633 -0.152949 -0.353879
-0.179927 0.169552 -0.148246
0.188589 0.119792 -0.078103
0.491122 -0.382817 0.168260
-0.181347 -0.042977 0.439081
0.272669 -0.256599 -0.340060
-0.419718 0.593282 0.014370
0.200974 0.106507 -0.043768
-0.282498 -0.565206 0.333002
0.433630 -0.049691 0.232893
-0.385147 0.069098 -0.199851
-0.322477 -0.023292 0.311959
-0.349249 -0.225401 -0.349011
0.221151 -0.002356 0.320568
-0.297265 -0.338656 0.339426
-0.370519 0.088091 0.058059
0.433726 -0.400113 0.077962
0.017769 -0.112416 0.407005
-0.374046 -0.344019 -0.393218
-0.371391 0.005425 -0.181372
0.442141 -0.392926 0.105527
0.261883 -0.302114 -0.309502
-0.275390 0.432613 -0.101437
0.168416 -0.583553 -0.634321
0.106426 0.044454 0.189687
0.242161 0.335702 -0.197159
0.138107 -0.001203 0.242037
0.340903 0.077219 0.095126
0.313322 0.759168 -0.115039
0.453807 -0.609552 0.130264
0.210228 -0.023126 0.383244
-0.194587 0.170076 -0.149683
-0.318263 -0.568771 -0.459450
-0.069338 0.717182 -0.145263
0.399608 -0.054941 0.325861
-0.384083 0.681646 0.008569
0.074642 -0.029822 0.398131
-0.023747 0.092450 0.048702
-0.251097 -0.597167 0.249843
0.486361 -0.369889 0.184432
-0.193240 0.018146 0.260891
-0.132336 0.162402 -0.195446
0.213679 -0.406732 -0.518311
-0.295548 -0.009986 -0.208955
0.315559 0.851022 -0.171568
0.182679 -0.125608 -0.455403
-0.124978 0.039424 0.204743
0.415667 -0.103865 0.234845
0.194043 -0.352277 -0.476865
-0.065812 -0.165203 -0.339927
0.355615 -0.009162 0.273115
-0.082461 0.030542 0.230514
-0.101012 0.715747 -0.128432
-0.304048 -0.338526 -0.194275
0.427070 0.029353 0.232076
-0.178364 0.018742 0.194222
-0.307096 -0.520449 0.322156
0.240231 -0.167491 -0.432124
0.194200 0.243649 -0.287736
0.490300 -0.193669 0.240217
0.499464 -0.678071 0.062536
-0.088327 -0.418495 0.308797
0.461227 -0.652250 0.119028
-0.299104 0.866444 -0.024132
0.130468 0.078627 0.087550
0.148762 0.178427 -0.241585
0.278741 0.485397 -0.233988
0.154118 0.194134 -0.259929
0.180798 0.178876 -0.175279
0.430939 -0.320122 0.217495
-0.267235 -0.013449 0.211551
-0.413408 0.380482 -0.084538
0.171805 0.147479 -0.155647
0.264978 0.243183 -0.292552
0.297329 -0.090577 0.296017
-0.251431 0.104387 -0.039854
0.108281 -0.017047 0.288305
0.047482 -0.422380 0.286498
-0.049085 0.204746 -0.248230
0.501328 -0.708165 0.082013
-0.349944 0.099964 0.031421
-0.129478 0.071901 0.048604
0.108692 0.118103 -0.019817
0.066490 -0.068761 0.410969
-0.224040 -0.059830 0.484351
-0.245594 -0.078617 0.348386
-0.018000 -0.039067 0.350383
0.160295 0.181522 -0.250769
0.026342 0.031760 0.226683
0.476979 -0.339797 0.138012
0.332398 0.104467 0.016151
0.363143 -0.000106 0.246495
0.430243 -0.026758 0.176249
0.273228 -0.086714 0.303975
0.216595 0.363943 -0.266624
0.032974 0.122462 -0.088088
0.281202 0.322327 -0.246679
-0.140315 -0.004429 0.322495
0.150962 -0.033325 0.411304
-0.302655 0.080651 -0.032824
0.416544 -0.433620 0.164694
0.388872 0.014457 0.274316
-0.142461 0.022764 0.183573
0.387274 -0.066405 0.281616
-0.152383 0.009071 0.223684
0.005366 0.136239 -0.063689
-0.048085 0.689989 -0.120213
-0.182903 0.891996 -0.074507
0.384861 -0.006031 0.198981
0.289620 0.908681 -0.104733
-0.028232 -0.151877 -0.390505
0.398307 0.080677 0.011386
-0.373548 0.811947 0.003640
-0.226410 -0.000422 0.314334
-0.420176 0.534744 -0.072424
0.351780 0.059219 0.146113
0.242644 0.559488 -0.222510
-0.270065 0.073604 0.043952
0.238752 -0.239082 -0.344931
-0.383675 -0.375919 -0.384074
0.001517 -0.127988 0.405439
-0.212783 -0.092983 0.477921
-0.348127 -0.351553 -0.411464
-0.399543 0.400611 -0.052305
-0.220856 -0.050461 0.461076
0.201656 0.231949 -0.305547
0.425264 -0.674067 0.069525
0.017535 0.149665 -0.162713
0.156465 -0.113987 0.367638
-0.148279 0.186955 -0.233690
0.386804 0.039851 -0.004439
-0.286009 -0.373018 -0.038369
0.218105 -0.479499 -0.579162
0.152062 0.905290 -0.146434
0.129090 0.709067 -0.143852
0.477141 0.016808 0.229410
0.268997 0.066656 0.068480
-0.287788 -0.572277 0.251301
-0.296757 -0.488302 0.184932
-0.065052 -0.434836 0.312670
0.284206 0.121532 -0.030368
0.270824 0.152988 -0.105496
-0.305205 -0.433446 0.344644
-0.460734 0.683277 0.021846
0.458049 -0.667842 0.044002
0.480767 -0.037143 0.269573
-0.123802 0.673949 -0.117394
-0.216781 0.695271 -0.113141
-0.327774 -0.031319 -0.264320
0.172117 -0.030902 0.404706
0.201060 -0.481952 -0.557646
-0.215519 -0.166724 0.447997
0.170410 0.706942 -0.145876
0.226511 0.708811 -0.185335
0.179681 0.109137 -0.316690
0.177235 0.054038 0.098804
-0.132006 -0.077756 0.482058
-0.106758 -0.427877 0.319102
0.195746 -0.570644 -0.615070
0.399571 -0.377334 0.146263
0.209132 -0.019153 0.371092
0.240317 -0.085749 0.313494
-0.113425 0.684064 -0.105198
-0.254833 0.002637 0.234101
-0.268107 -0.069590 0.489901
0.338130 -0.395098 0.163221
0.128577 -0.019371 0.368679
-0.401290 0.422332 -0.110150
-0.087560 0.034297 0.219934
-0.276089 -0.401260 0.301269
0.132659 0.132804 -0.056866
0.107239 0.159955 -0.124558
0.279166 0.372887 -0.199990
0.199478 0.032725 0.218581
-0.367822 -0.121718 -0.291290
0.440591 -0.402186 0.051374
-0.317779 0.091465 -0.210938
-0.371431 -0.036939 -0.198399
-0.218306 0.033779 0.153146
-0.306664 -0.043533 0.353902
0.410044 -0.353360 0.181492
0.078510 0.906089 -0.119586
-0.261953 0.076973 0.036110
0.446010 0.041387 0.157861
0.188564 0.143810 -0.285416
0.488034 -0.857343 0.029783
-0.245013 0.852445 -0.066778
-0.114700 -0.041745 0.434794
0.186663 0.160079 -0.126301
-0.104364 -0.039653 0.428535
-0.307661 -0.376092 -0.121572
-0.251703 -0.318230 0.414875
0.377954 0.030576 0.226221
0.116792 -0.432897 0.237937
-0.254460 -0.558784 0.333834
0.429064 -0.303827 0.141445
-0.248548 -0.789279 0.225603
-0.438119 0.851658 0.015031
-0.262446 -0.038863 0.238147
-0.174057 -0.423602 0.289269
-0.337259 -0.263029 -0.272812
-0.335724 0.036175 -0.240015
-0.307571 -0.472054 0.160776
0.151457 0.047536 0.181201
0.303893 0.168364 -0.215999
-0.435969 0.675499 0.037064
-0.259303 -0.030992 0.263677
-0.293899 -0.076434 0.300806
0.240054 -0.380128 0.201966
-0.077877 0.678835 -0.124308
-0.326082 -0.322873 -0.147467
0.415721 -0.509520 0.096341
0.162457 -0.106677 0.371387
-0.107472 -0.158367 0.420543
-0.098629 0.444666 -0.189664
0.292548 0.089845 0.059552
0.316465 0.049609 0.111117
-0.267211 -0.466399 0.364785
0.306568 0.182170 -0.177853
0.123153 0.456432 -0.225154
-0.178220 0.465576 -0.159656
0.475617 -0.637288 0.053301
0.050892 0.718407 -0.139833
0.285324 0.690369 -0.122827
0.262762 0.108537 -0.197912
-0.286392 -0.483913 0.354530
-0.150073 0.036027 0.213508
-0.308390 0.116569 -0.144166
0.159158 0.012875 0.273065
-0.095231 0.124192 -0.094546
-0.311958 0.432344 -0.090823
0.249662 0.124696 -0.339761
-0.305317 -0.330412 -0.381751
0.469011 -0.141394 0.213577
0.094809 -0.120316 0.371863
0.305469 0.058154 0.150060
-0.103444 0.142176 -0.076718
0.398254 0.029846 0.229105
0.206113 -0.425797 0.217633
0.484464 -0.347108 0.145087
0.460673 -0.771398 0.077607
0.266866 0.087006 -0.135853
-0.366448 -0.379728 -0.419093
0.198686 -0.056069 0.420182
-0.225247 0.691371 -0.112044
-0.358582 -0.011336 0.140094
-0.302285 -0.393110 -0.076885
0.007005 -0.022446 0.373521
-0.297175 -0.477786 0.152305
-0.134884 0.003183 0.302187
0.373637 -0.410140 0.195617
-0.148374 -0.078849 0.475130
-0.064959 0.164281 -0.134854
-0.302339 -0.438970 -0.395581
-0.079447 0.131982 -0.051018
-0.352037 0.416215 -0.047515
-0.374426 0.031846 0.100755
-0.035362 0.868048 -0.103390
-0.022669 -0.195902 -0.368261
0.256470 0.744489 -0.181226
0.461036 -0.403472 0.192695
-0.115522 -0.008960 0.272852
0.064188 -0.002067 0.244810
0.334740 -0.316844 -0.208596
0.164832 -0.221069 -0.426654
-0.210275 -0.028680 0.322157
0.015398 -0.171555 -0.409544
0.261638 0.863734 -0.162591
-0.332917 -0.388854 -0.065765
-0.370507 -0.258202 -0.291578
0.028253 -0.079595 0.415553
-0.459582 0.652090 -0.013265
0.453429 0.014907 0.205943
0.276912 -0.047866 0.363926
0.162280 -0.147973 -0.393979
-0.098381 0.017035 0.265542
-0.300965 -0.169819 -0.246308
-0.035023 0.110979 -0.048220
0.359771 -0.058367 0.291251
-0.010234 0.009974 0.220646
0.387897 0.104492 -0.008578
-0.312879 -0.698228 0.275168
-0.312044 -0.639304 0.263597
-0.367901 -0.345779 -0.327385
-0.074694 0.023076 0.250177
0.418138 -0.498193 0.143696
-0.292948 -0.062478 0.403634
0.036686 0.480157 -0.193835
-0.139443 0.890399 -0.072802
-0.116286 0.073538 0.044188
-0.369140 0.548076 -0.008820
-0.247057 -0.362121 0.395713
0.242390 0.632311 -0.155612
-0.292929 -0.377198 -0.004142
-0.130556 0.079417 0.086751
-0.097443 0.006374 0.231693
-0.319537 0.130396 -0.041276
-0.084396 -0.034323 0.338612
0.347751 0.111474 -0.134164
-0.062711 -0.021706 0.373682
-0.149152 0.099957 -0.021377
-0.395653 0.091630 0.015917
-0.252066 -0.476289 0.275019
0.238672 0.122898 -0.032024
0.491645 -0.404254 0.162109
0.244864 -0.389372 0.229592
0.030907 0.719782 -0.166949
-0.150981 -0.011992 0.281981
0.277082 0.291303 -0.232720
-0.029909 0.900721 -0.126011
-0.259342 -0.086776 0.497847
0.378860 -0.038605 0.366664
-0.390267 0.130965 -0.162269
-0.312045 -0.514604 -0.432055
0.089897 0.724293 -0.149459
-0.404035 0.480731 -0.024097
-0.343132 -0.600364 -0.527382
-0.127757 0.032342 0.224931
-0.281684 0.012329 0.115666
-0.299890 -0.175576 0.426531
-0.309019 -0.727874 0.237683
-0.002135 -0.098837 0.416582
-0.310088 -0.312164 -0.177210
0.462636 -0.281127 0.150008
0.404515 -0.298255 0.182143
0.439032 -0.533884 0.072502
-0.129191 0.431909 -0.150295
-0.370468 0.048764 0.128542
0.383550 0.111771 -0.048033
0.221891 0.501135 -0.196660
0.117315 0.025700 0.237481
0.191627 -0.308710 -0.553345
0.443376 -0.200006 0.180312
0.316341 0.009863 0.286331
-0.131033 -0.199628 -0.325158
-0.329487 0.076869 0.092518
-0.255148 0.137952 -0.062701
0.154524 -0.575067 -0.645260
0.173524 -0.040835 -0.397569
0.258780 -0.421737 0.221721
-0.180367 0.033959 0.218803
-0.380260 -0.086396 -0.247451
0.066912 0.117615 -0.065692
-0.152703 -0.125409 0.445921
-0.343274 0.125936 -0.208755
0.484945 -0.426771 0.169284
0.231909 0.194491 -0.326805
-0.300455 -0.058041 0.366733
-0.038206 0.139223 -0.070504
0.420035 0.013229 0.279048
-0.362291 0.522979 -0.072364
-0.031593 -0.195415 -0.378320
-0.312806 0.219130 -0.138444
-0.358800 -0.623947 -0.463701
-0.112778 -0.001856 0.314569
-0.366912 0.091406 -0.132609
0.173383 -0.074922 -0.365041
-0.196221 -0.163565 -0.326062
-0.217873 -0.186190 0.439831
0.469959 -0.034518 0.331801
-0.128131 0.027259 0.170587
-0.111774 0.137835 -0.131811
-0.284337 -0.450142 0.079421
0.265339 0.845060 -0.127985
0.370654 0.058286 -0.051876
0.247047 0.638660 -0.203517
-0.188363 0.885659 -0.059976
-0.298496 -0.746286 0.222447
-0.286675 -0.457172 0.220311
0.233531 0.161109 -0.124386
0.249324 0.180780 -0.323481
-0.085072 0.462928 -0.159973
-0.064026 0.203489 -0.240705
0.237553 0.100956 -0.028700
-0.076003 0.059189 0.144878
0.197941 0.146158 -0.337634
0.414678 0.041558 0.070815
-0.148447 0.001315 0.307095
-0.313853 -0.454893 0.147189
-0.176645 -0.154323 0.403263
-0.174357 -0.167911 0.429411
-0.125619 0.860402 -0.074663
-0.063741 -0.441779 0.311542
-0.285876 -0.309999 0.338009
0.057203 0.142670 -0.079924
0.360206 -0.394834 -0.046685
0.409218 -0.309536 0.159936
-0.229217 -0.004305 0.325620
-0.008455 0.147045 -0.155703
0.480937 -0.796041 0.011171
-0.238686 -0.032361 0.329236
-0.232253 0.859395 -0.074530
0.410460 -0.438924 0.106171
0.356907 -0.001573 0.117539
-0.376130 -0.551519 -0.435697
0.035595 0.004649 0.294693
0.006750 0.438413 -0.189191
-0.180940 -0.460527 0.304386
-0.262289 -0.666759 0.230965
-0.381757 0.313015 -0.073651
0.192638 0.229643 -0.291782
0.368604 0.058801 0.146926
-0.184546 0.155399 -0.177581
-0.266873 0.033407 0.151171
0.293340 0.049176 0.113177
0.231700 0.515120 -0.174765
0.130767 0.451580 -0.223784
-0.222144 0.143036 -0.077024
0.240861 0.106001 0.012375
-0.205973 -0.153705 0.450332
0.215169 0.192285 -0.208003
0.482542 -0.812864 0.006577
0.321434 0.061512 0.139997
-0.029693 0.040631 0.201595
-0.228993 -0.571248 0.305358
0.193165 -0.081002 -0.349480
-0.110196 0.463538 -0.154963
0.045769 0.028744 0.232682
0.265598 0.510340 -0.155449
-0.313979 -0.344110 -0.201428
-0.194199 0.084762 0.074051
0.061185 0.198242 -0.222278
0.213024 0.078779 0.031974
0.409300 -0.469384 0.112944
0.232387 -0.233542 -0.359161
0.113987 0.895519 -0.116888
-0.137693 -0.202932 -0.330272
0.164617 0.132938 -0.115511
0.153298 -0.400287 -0.527241
0.155863 0.452942 -0.190541
0.389396 -0.391213 0.198917
-0.009345 0.455969 -0.171663
-0.372291 -0.122503 -0.286371
-0.176624 -0.160966 -0.333847
-0.084890 -0.145487 0.390070
0.425380 -0.397901 0.084571
-0.323145 -0.610311 -0.502932
0.242356 0.080644 0.086369
0.421990 -0.068416 0.248596
0.050341 0.139135 -0.071098
-0.250303 0.692368 -0.078538
-0.285946 -0.448453 0.073179
-0.344612 -0.352634 -0.130031
-0.314226 -0.321861 -0.152044
0.174104 -0.410606 0.206255
0.356181 -0.112693 0.315845
0.503034 -0.702455 0.060534
-0.338631 0.321883 -0.075684
-0.422180 0.803800 0.001621
0.342903 0.916037 -0.135287
-0.119568 -0.189767 -0.322162
0.231263 -0.018635 0.294099
0.216424 0.149892 -0.343078
-0.066281 -0.047643 0.379935
-0.265906 -0.413444 0.382132
0.228176 0.578055 -0.192935
0.318918 -0.085793 0.291972
-0.261988 0.039369 0.199790
-0.405166 0.586385 0.014004
-0.353800 0.429491 -0.043367
-0.006005 0.161308 -0.125782
0.434309 -0.611666 0.061900
-0.395093 0.678373 -0.025748
-0.350217 -0.282581 -0.261694
0.085417 0.163899 -0.133595
0.145344 0.204152 -0.241708
-0.074788 0.167622 -0.211385
0.237155 0.662181 -0.186746
0.203231 -0.301757 -0.452166
-0.079470 0.866865 -0.104190
0.018213 -0.002681 0.315807
0.359832 0.148858 -0.126714
-0.168509 0.117050 -0.076094
-0.326522 -0.206686 -0.248073
0.202083 0.238081 -0.303339
0.282894 0.928806 -0.146342
-0.386550 0.628637 0.016688
-0.309951 -0.810566 0.248464
0.257994 0.055504 -0.341101
-0.374024 0.101569 -0.113309
0.001561 0.195830 -0.215957
0.281398 -0.071737 0.351761
0.404228 0.055746 0.030143
0.344435 -0.381300 -0.088864
-0.257792 -0.343048 0.405945
0.196847 0.097842 -0.020491
0.235416 0.527663 -0.226527
0.194383 -0.410475 -0.604207
-0.191671 -0.045042 0.369739
-0.404877 0.541674 -0.000469
0.320186 0.131271 -0.056473
-0.089019 -0.062257 0.413768
-0.407273 0.550724 0.002227
-0.220898 -0.198538 0.402285
0.463209 -0.724069 0.094167
-0.303640 -0.397305 0.328772
-0.010711 0.079612 0.027862
-0.195737 0.071950 0.108776
-0.354883 -0.568621 -0.515498
0.113239 -0.033209 0.410951
-0.268659 -0.917198 0.196880
-0.380387 -0.288295 -0.350438
-0.346991 -0.322295 -0.252122
0.333899 0.098687 0.033246
-0.298865 -0.287558 -0.308776
0.148790 -0.115672 0.361637
-0.319122 0.037832 0.194554
0.245059 0.120156 -0.268380
0.089203 0.070906 0.050333
-0.304418 -0.405390 -0.412254
-0.194213 -0.075678 0.493677
-0.352874 -0.001889 -0.253213
-0.305645 -0.484186 0.214643
-0.338626 0.056272 -0.232943
-0.300500 -0.422776 0.358540
-0.294947 -0.091288 -0.255977
0.315199 0.723074 -0.175660
0.293889 0.502482 -0.216173
0.256877 0.612832 -0.214157
0.135703 0.072706 0.045913
-0.303623 -0.017930 0.359476
-0.101004 -0.059852 0.476041
-0.069369 -0.133872 0.383555
0.089398 0.206194 -0.249986
-0.121505 0.056801 0.151933
-0.078240 0.121358 -0.027338
0.332988 0.168190 -0.184102
0.436455 -0.062283 0.247050
0.382028 -0.369211 0.183944
0.188469 -0.339646 -0.469960
-0.255869 0.677347 -0.063933
0.188487 -0.126695 -0.458260
0.269825 -0.308715 -0.293249
0.253671 0.768940 -0.169131
0.366368 0.132136 -0.067185
0.242433 -0.066015 -0.355797
-0.295699 -0.091784 0.357162
0.475070 -0.187856 0.267610
0.101201 0.872974 -0.138579
-0.316001 -0.409275 0.067297
0.205798 -0.100684 -0.354862
0.076062 0.130542 -0.109010
-0.403302 0.773148 0.032775
-0.333729 -0.098810 -0.202541
0.380193 0.040155 -0.006848
-0.312461 -0.680352 0.280282
0.228616 0.371606 -0.194932
-0.192805 0.165123 -0.136611
-0.330224 0.311346 -0.085542
0.073807 -0.186545 -0.385155
0.047996 0.894927 -0.108717
-0.377646 0.144391 -0.193148
0.033929 -0.018574 0.362454
0.108011 0.064054 0.133646
0.235632 0.025052 -0.305381
0.088690 0.115491 -0.012882
-0.401483 0.446744 -0.035672
0.171001 -0.055588 0.409210
-0.320387 0.069237 -0.221596
0.236769 -0.221294 -0.412177
0.312457 0.817312 -0.173773
0.229156 0.286149 -0.297767
0.291844 0.913966 -0.168328
-0.261186 -0.455495 0.159390
0.251174 0.024775 0.240957
0.005427 0.889673 -0.100515
-0.072251 -0.015639 0.355011
-0.265857 -0.039595 0.219038
-0.220602 0.079884 0.029999
-0.171397 0.122125 -0.089741
-0.367206 -0.401897 -0.429936
-0.153549 -0.078928 0.483504
-0.295669 -0.332417 -0.350238
-0.376816 -0.093960 -0.266733
-0.268004 -0.038696 0.212731
-0.021021 -0.102474 0.375354
-0.216343 -0.222655 0.403570
0.197734 0.146514 -0.271750
-0.442847 0.677217 0.035521
-0.229804 -0.355513 0.386508
-0.280998 0.687213 -0.083112
-0.210385 0.088465 0.064657
0.249242 0.644167 -0.146482
0.438736 -0.517770 0.075784
-0.273505 -0.619691 0.236670
0.275904 -0.313372 -0.281792
0.227795 -0.112100 -0.366439
0.327780 -0.039322 0.358976
0.110137 0.012779 0.272163
0.464643 -0.084180 0.235567
-0.298655 -0.221341 0.420955
0.183738 -0.419879 -0.612205
-0.027969 0.138389 -0.133517
-0.333317 0.340475 -0.126240
-0.192003 -0.417343 0.310102
0.209363 -0.090411 -0.442223
0.186276 0.072730 -0.359456
-0.049558 0.110244 -0.051695
-0.274475 -0.143675 0.481640
0.364665 0.078882 0.089373
0.092839 0.109160 0.002680
0.312521 -0.378803 0.205636
-0.026393 0.474188 -0.202018
-0.247623 -0.666173 0.302284
-0.300066 -0.212071 0.408147
0.288937 0.404262 -0.204921
-0.264234 0.017252 0.192760
0.299848 -0.003875 0.255579
-0.013936 0.069796 0.112625
-0.031939 0.052082 0.100451
-0.007441 0.722213 -0.138059
0.183773 -0.313996 -0.557266
0.431014 -0.187764 0.188718
-0.431904 0.836451 0.068425
0.457883 -0.425670 0.185898
-0.286860 -0.507333 0.347422
-0.306444 -0.065132 0.435655
0.311985 0.153237 -0.187234
-0.373401 -0.342102 -0.331726
0.156619 0.030931 0.161178
0.431680 -0.401752 0.020247
0.166234 0.082553 0.078631
-0.340155 -0.387214 -0.332771
-0.360539 -0.065029 -0.273066
0.359468 0.059394 -0.054195
-0.399724 0.233990 -0.139552
0.220190 -0.256527 -0.428612
-0.028147 -0.187394 -0.390422
-0.034203 -0.139831 0.408533
-0.274821 -0.289730 0.339189
-0.119035 0.194915 -0.241273
0.153389 -0.475134 -0.629157
0.387075 0.108133 -0.027996
0.031103 0.107865 -0.044837
0.382689 -0.047333 0.289170
-0.213894 0.863899 -0.082128
0.332246 0.089124 0.061876
-0.215903 -0.036289 0.419542
-0.385436 -0.547180 -0.450029
-0.322578 -0.429546 0.056696
0.222361 0.088033 -0.366565
0.397001 0.086611 0.053595
-0.384538 0.043136 -0.200350
-0.372377 -0.312992 -0.317237
0.164034 -0.284749 -0.533025
-0.303487 -0.344118 0.367875
0.335069 0.001113 0.312679
-0.286521 -0.577509 0.328679
-0.301704 -0.048783 0.228202
-0.139887 0.451009 -0.143103
-0.098434 -0.005590 0.324719
-0.104039 -0.050266 0.385252
0.478691 -0.852296 0.050626
0.313862 -0.288471 -0.236891
0.321585 0.104345 -0.177279
-0.126969 -0.051453 0.389696
0.441573 -0.071867 0.238287
0.013306 0.707796 -0.130947
-0.284368 -0.113669 0.411594
-0.404880 0.612181 -0.055182
0.228284 -0.352428 -0.532721
-0.239970 0.441805 -0.114692
0.071367 0.112782 -0.005841
0.211396 -0.074982 -0.343263
0.122029 -0.389918 0.237810
0.468185 -0.423204 0.183757
0.082595 0.148004 -0.158632
0.300044 0.179903 -0.170610
0.239931 0.392274 -0.266864
0.497895 -0.589896 0.105485
0.249812 0.042344 -0.308850
0.008621 -0.402234 0.274417
0.125727 -0.024257 0.309577
-0.237003 -0.740881 0.261273
0.144265 -0.385734 -0.552647
-0.172059 0.011516 0.215753
-0.326032 0.268450 -0.146761
0.268649 0.407994 -0.181418
-0.369249 0.037668 -0.010093
0.271793 0.111720 -0.086313
-0.118036 0.147190 -0.089187
0.080731 -0.098299 0.353368
0.028728 0.686281 -0.151870
-0.351563 -0.621444 -0.461072
0.296225 0.857795 -0.175557
0.480003 -0.147338 0.280323
-0.395561 0.602832 -0.057397
-0.232351 0.108688 0.011985
0.490982 -0.689185 0.098461
-0.260502 -0.099253 0.365913
0.067945 0.121233 -0.083695
0.411180 -0.383419 0.032676
-0.229744 -0.274653 0.419066
0.280682 0.103684 0.019737
0.298077 -0.329590 -0.174591
-0.327227 0.288218 -0.092654
-0.396927 0.297476 -0.139742
0.222147 -0.019053 0.295115
0.314987 0.634374 -0.160157
0.261866 0.309718 -0.280821
0.226011 0.542418 -0.207628
-0.074965 0.044599 0.190469
0.183489 0.193422 -0.262846
-0.228230 0.021877 0.251199
0.307395 0.102156 0.023676
0.213268 -0.182872 -0.482727
-0.031707 -0.433474 0.257522
-0.308999 -0.502941 -0.441887
-0.298596 -0.105210 0.448169
-0.344094 -0.188044 -0.241522
0.187925 0.903802 -0.130995
-0.191723 -0.016878 0.359906
0.157625 0.013107 0.208441
0.325227 0.039707 0.198718
-0.295689 -0.051621 -0.242165
-0.090527 -0.031072 0.328718
0.402173 -0.360234 0.168541
-0.336641 -0.003287 0.263614
0.468254 0.016205 0.267647
-0.078199 -0.077647 0.445150
0.216800 -0.393855 -0.578204
0.145275 0.726412 -0.161295
-0.331043 -0.225790 -0.256642
-0.208226 0.104197 0.023625
-0.359698 0.009568 0.071347
0.030201 -0.030359 0.397622
0.158831 -0.284932 -0.527470
0.065622 0.182083 -0.252737
0.434026 -0.220537 0.259995
-0.235942 0.431881 -0.114463
-0.198218 0.014245 0.206587
0.281671 0.110911 -0.001228
0.413292 -0.410190 0.179072
0.099620 -0.012388 0.345179
-0.041365 0.897163 -0.125258
0.254468 -0.020696 0.301098
-0.361109 0.337048 -0.141819
-0.342182 -0.300513 -0.213705
0.103608 0.037012 0.209748
0.397374 -0.061043 0.324198
-0.237976 0.161908 -0.127904
-0.097457 0.005651 0.293633
-0.168701 0.133085 -0.050957
-0.353474 -0.631661 -0.519679
-0.222300 0.052662 0.162785
0.436726 -0.300703 0.140434
-0.341201 0.340464 -0.070086
-0.087766 0.898571 -0.088165
0.149952 0.130185 -0.108650
0.016912 -0.039614 0.351300
0.032590 0.043181 0.193909
-0.245158 -0.330813 0.407657
-0.296524 -0.330132 -0.341703
-0.303426 0.050744 -0.027627
-0.161445 0.051325 0.166861
-0.289485 -0.327524 0.402769
-0.156862 0.178030 -0.170049
-0.310793 -0.360582 -0.160309
-0.338896 0.448553 -0.078220
-0.272356 -0.303446 0.333770
-0.399172 0.732657 0.033231
-0.040505 -0.419378 0.257349
-0.229414 -0.578814 0.304679
0.169640 -0.045026 -0.370030
0.493461 -0.466477 0.139431
-0.028928 0.475286 -0.178055
0.038523 0.101066 0.023937
-0.404332 0.289919 -0.114055
0.044834 -0.041168 0.356917
-0.087870 0.439259 -0.187508
-0.363388 0.576668 -0.037832
0.270076 -0.311677 -0.240932
0.291905 0.874586 -0.173023
0.217895 0.143722 -0.242833
0.045676 0.144948 -0.085473
-0.364615 0.056507 0.129210
-0.080281 0.056468 0.088117
0.282886 0.010049 0.285218
0.166967 0.137615 -0.128035
-0.229929 -0.615894 0.281574
-0.217195 0.005065 0.297379
-0.332511 -0.301172 -0.205093
0.406186 -0.179751 0.247987
0.158663 -0.431323 0.243105
0.313660 -0.354274 -0.158949
0.478494 -0.154442 0.279181
-0.303979 -0.616406 0.252995
-0.234389 -0.214004 -0.313754
0.229979 -0.310788 -0.513199
0.305334 0.049658 -0.019349
-0.379113 0.113902 -0.085474
-0.087189 0.100534 0.029683
-0.311820 -0.301073 -0.277815
-0.011368 -0.026122 0.384062
-0.013940 0.042878 0.194365
0.476413 -0.645570 0.051603
0.216824 0.408824 -0.252020
-0.226836 -0.286377 0.356184
0.298400 0.122917 -0.034614
-0.247623 0.844217 -0.054456
-0.045772 0.905060 -0.106921
0.304565 0.060388 0.081635
0.427687 -0.551167 0.075912
0.247616 0.078898 -0.290741
-0.220353 -0.358847 0.351365
0.211472 0.007150 -0.309422
-0.329701 0.675607 -0.050932
-0.234881 -0.063708 0.489196
0.402225 0.020271 0.049426
0.182773 0.724514 -0.170742
-0.361868 0.553931 -0.050519
-0.302303 -0.534094 0.276331
0.229615 -0.153601 -0.456701
-0.130994 0.117376 -0.075990
-0.221173 -0.046088 0.371968
-0.285763 -0.389141 0.310634
0.137649 -0.403549 0.213726
-0.117460 -0.018261 0.362760
-0.267478 0.035512 0.212042
0.270789 0.085307 0.012755
-0.145366 -0.109144 0.449565
-0.221200 -0.296796 0.363937
-0.160121 0.425916 -0.148808
-0.318145 -0.470336 -0.385666
-0.028961 0.111596 0.001273
0.148106 -0.344615 -0.511854
0.092188 -0.137533 -0.405781
-0.298621 0.082701 -0.008750
0.195533 0.048928 0.112733
0.165563 -0.105571 -0.409702
-0.464079 0.687282 -0.012833
-0.218765 -0.308585 0.380858
-0.388691 0.306908 -0.143874
-0.157683 0.464842 -0.150926
-0.291517 -0.226768 -0.293242
-0.293091 -0.885378 0.201980
-0.011748 0.063610 0.130942
0.182665 -0.110764 -0.367499
0.118143 0.886962 -0.153432
-0.366858 0.617933 -0.019958
0.168668 -0.354152 -0.575428
-0.233764 -0.080501 0.421546
-0.443377 0.801153 -0.001899
0.016819 0.145258 -0.085804
-0.219690 0.158694 -0.119217
-0.365881 0.482226 -0.093066
0.138959 0.001570 0.234577
0.227493 0.079437 0.089643
-0.023600 0.003948 0.297227
0.076786 0.072289 0.046810
0.336972 0.858549 -0.113380
0.219936 -0.437400 -0.592658
-0.262104 -0.055395 0.256632
-0.377891 0.558908 -0.000743
0.266619 0.117511 -0.088963
-0.246063 -0.039357 0.428160
-0.352081 -0.131982 -0.304352
0.404735 -0.371688 -0.040852
0.458550 -0.221082 0.261174
0.381712 -0.082656 0.321335
-0.388743 -0.598442 -0.483891
0.100203 -0.392529 0.242533
-0.262360 0.843533 -0.054357
-0.019552 -0.195474 -0.377493
-0.307189 -0.447653 -0.384184
0.174898 -0.012551 -0.382124
-0.353767 0.042607 0.165915
-0.034780 0.054513 0.093857
0.211279 -0.171107 -0.478033
0.332374 -0.005585 0.261344
0.151897 0.725017 -0.172229
0.264070 0.113330 -0.306575
-0.323422 0.018820 -0.161883
0.328469 0.793891 -0.159871
-0.076905 0.190121 -0.201391
-0.130374 0.103388 0.023748
0.296322 -0.375555 0.198341
0.032405 -0.028091 0.318101
0.081435 0.044211 0.124879
0.224982 -0.123808 -0.448804
-0.345446 -0.617111 -0.459575
-0.135119 0.086003 0.068771
0.465830 -0.238208 0.251377
-0.038701 -0.195516 -0.355201
0.042321 0.202915 -0.235607
-0.348040 -0.133849 -0.219518
-0.349167 -0.120080 -0.299687
-0.343826 -0.022781 0.195525
0.444042 -0.252967 0.248191
0.273534 -0.015548 0.287655
-0.016689 0.124113 -0.031334
-0.346110 0.079879 0.083240
0.319341 0.092394 -0.152459
-0.325712 -0.607154 -0.510236
-0.422829 0.806801 0.060798
0.312221 0.625640 -0.180957
-0.362562 0.006022 0.136724
-0.121605 -0.011034 0.278078
0.460659 -0.567767 0.141680
0.228013 -0.012625 -0.403005
0.024758 0.034241 0.219645
-0.401136 0.660041 0.029437
0.463575 -0.064852 0.327318
-0.046525 0.151925 -0.102926
0.205592 -0.134969 -0.463177
0.026309 0.198103 -0.222959
0.149598 -0.491073 -0.589563
0.142968 -0.009988 0.267629
-0.232186 -0.348415 0.330574
-0.223135 0.071857 0.109158
-0.384524 0.592005 -0.056506
-0.108052 -0.008903 0.272450
-0.381656 0.624722 0.012048
-0.342482 -0.146623 -0.223160
-0.113613 -0.076824 0.470138
-0.261234 -0.841547 0.205688
-0.372079 -0.139023 -0.241063
-0.301342 -0.268575 0.393001
0.100961 0.109475 0.001951
-0.123391 -0.078651 0.456581
0.260889 0.074123 -0.319945
-0.291168 -0.726680 0.221109
0.500413 -0.837169 0.049266
0.217726 0.137266 -0.250676
-0.376469 -0.535059 -0.427652
0.093669 0.015987 0.201860
-0.260204 -0.236991 0.447225
-0.350939 -0.466996 -0.468796
-0.300664 -0.250338 0.392439
-0.213265 0.084005 0.018465
0.289418 0.192531 -0.207401
-0.262322 0.041301 0.193066
0.446929 -0.129226 0.212020
-0.148415 -0.029541 0.323965
-0.084784 0.081519 0.023624
-0.295878 -0.155022 -0.248137
0.006760 -0.029811 0.394988
-0.324961 -0.549998 -0.491773
0.236528 -0.153568 -0.444538
0.223133 0.032608 0.156122
0.248102 0.333245 -0.197614
0.130653 0.458833 -0.226652
-0.414462 0.619123 0.023191
0.205597 -0.325633 -0.556108
0.033120 0.087504 0.059900
-0.074092 0.709399 -0.118500
0.249074 0.359885 -0.274091
-0.314838 -0.031874 0.316298
0.410088 -0.345597 0.185855
-0.081305 0.057889 0.149268
0.327249 0.050814 0.169782
-0.299216 -0.169915 0.420656
0.240426 -0.018081 0.292915
-0.114519 0.434823 -0.179520
0.208014 0.421518 -0.228544
-0.293478 -0.317446 0.401220
-0.273080 -0.455382 0.367638
-0.293663 -0.685866 0.300249
0.379877 0.094160 0.041310
-0.181265 0.019582 0.256620
-0.295337 -0.338760 -0.150777
-0.207381 -0.020749 0.371462
0.300871 0.102033 0.024265
-0.115863 -0.047336 0.377386
0.471227 0.014958 0.213805
-0.177347 0.669408 -0.091479
-0.070372 0.196776 -0.218747
0.271732 0.123294 -0.238028
0.001238 0.062370 0.072926
0.248796 -0.067473 -0.385747
-0.095781 0.049666 0.106726
0.345506 0.029561 0.228218
-0.314750 -0.396454 0.042381
-0.342371 -0.130728 -0.304889
-0.170085 0.057040 0.088057
-0.012994 -0.073082 0.457145
0.493909 -0.474982 0.120114
0.059421 0.905475 -0.136771
0.007235 0.442638 -0.203256
-0.006938 0.107547 0.009839
-0.017911 0.096332 0.038041
0.015398 -0.150433 -0.406205
0.334499 0.909786 -0.099060
0.215498 0.868822 -0.150981
-0.218924 -0.340767 0.360741
0.401822 -0.118656 0.254092
0.301964 0.078062 -0.113848
-0.220948 -0.175855 -0.350572
-0.245425 0.847960 -0.060802
0.187472 0.472718 -0.229295
0.292110 0.101524 0.026004
-0.252322 -0.149185 0.393931
-0.379757 -0.206232 -0.305184
-0.410797 0.351295 -0.106291
-0.035585 0.046682 0.114994
-0.013159 -0.426508 0.252091
0.210757 0.080392 0.085608
-0.236127 0.659329 -0.091524
-0.346747 0.143946 -0.112901
0.149944 -0.462150 -0.571152
-0.360618 0.282930 -0.078062
0.056099 -0.024278 0.306828
-0.293717 -0.157346 0.455708
0.302565 0.936453 -0.121193
-0.301564 -0.225611 -0.272070
-0.296360 -0.237254 0.379809
0.271554 0.214888 -0.280330
0.317906 0.062530 0.031945
-0.133166 -0.033166 0.408613
0.027445 -0.158006 -0.413338
-0.336532 -0.170042 -0.232105
-0.305476 -0.070019 0.333341
0.251661 -0.052403 0.368819
0.218770 -0.406331 -0.581208
0.203768 -0.114434 0.356333
-0.387795 0.397018 -0.047804
0.331785 0.060133 -0.062870
0.066203 -0.034548 0.413613
0.383733 0.003985 0.304858
0.213676 0.141893 -0.139625
0.235230 -0.261075 -0.316024
0.350414 0.027720 0.233796
0.080020 0.902849 -0.143468
0.164753 -0.269027 -0.522921
0.300105 -0.294509 -0.209114
-0.117590 0.110844 -0.057932
-0.433500 0.749371 0.057715
0.148016 -0.565044 -0.649126
-0.297738 0.149991 -0.096359
-0.216561 -0.165410 -0.335430
-0.271828 0.057944 0.084481
-0.233993 -0.363252 0.324207
-0.321054 -0.390550 0.018218
-0.020245 -0.039654 0.424384
0.272317 0.423149 -0.250298
-0.276469 -0.372428 0.394172
0.020882 -0.160839 -0.412422
0.232042 0.149727 -0.190918
-0.142155 -0.195472 -0.363979
0.324299 0.025367 0.240395
0.326176 -0.087729 0.289508
-0.284648 0.422928 -0.136597
-0.314237 -0.444698 0.075421
0.002468 -0.134799 0.386075
0.018934 0.710847 -0.169529
0.229714 0.228100 -0.229596
-0.313180 -0.338044 -0.213359
-0.052192 -0.177064 -0.338760
0.011077 -0.027722 0.389107
0.181285 0.047908 -0.317558
-0.393815 0.088270 0.025885
-0.118004 0.899395 -0.091495
-0.352730 -0.050593 -0.188018
0.353627 0.002109 0.100617
-0.251181 0.838286 -0.042064
0.232148 0.183569 -0.182994
-0.149071 0.454886 -0.143563
-0.223349 0.659007 -0.086775
-0.303732 -0.682599 0.294454
0.006804 0.016900 0.262502
0.440605 -0.544590 0.069818
-0.328299 -0.604595 -0.463546
-0.382880 0.475227 -0.100531
0.235032 0.135811 -0.345992
0.304148 0.562239 -0.196789
0.076513 0.002230 0.301289
0.150541 -0.337619 -0.500543
0.413305 -0.238836 0.179167
-0.182108 0.188846 -0.209272
0.131590 0.908242 -0.133648
0.251910 0.123595 -0.091853
0.060791 0.062678 0.072309
-0.341070 -0.307303 -0.292495
-0.068421 -0.017721 0.287601
0.253774 0.552807 -0.227702
-0.256183 -0.707390 0.296137
0.300198 0.080973 -0.122207
-0.368935 0.041057 -0.019014
-0.095695 0.052666 0.098368
-0.283823 -0.603050 0.242235
-0.290364 -0.073204 0.480975
0.040052 -0.439575 0.253612
-0.303874 -0.346500 0.355342
-0.317641 -0.572291 -0.475812
-0.024685 -0.147820 -0.368469
0.491425 -0.709912 0.091455
-0.233576 0.091366 0.000985
-0.066361 0.158400 -0.119211
0.255458 -0.031455 0.401308
0.147754 -0.319056 -0.504167
-0.150026 0.009730 0.285390
0.029313 0.052431 0.166882
-0.209788 -0.158363 0.407819
-0.403533 0.274873 -0.125416
-0.042677 0.168159 -0.213311
-0.380635 -0.237347 -0.314368
0.229135 0.086101 0.069824
-0.306839 -0.478778 -0.435874
-0.299447 -0.503580 0.277976
0.293110 0.082604 -0.036560
-0.269235 -0.282138 0.340939
0.292783 0.012837 0.206490
-0.250366 -0.904471 0.211819
-0.298120 -0.536741 0.268978
-0.303055 -0.433207 -0.415766
0.176616 -0.133738 -0.457179
0.468460 -0.404655 0.109994
0.156153 0.059770 0.082698
0.285352 0.388002 -0.204045
-0.326307 -0.049645 0.234915
0.222352 0.355588 -0.203215
0.305677 0.696679 -0.124905
0.353129 -0.064083 0.334788
0.271394 0.236245 -0.248642
-0.197244 -0.021295 0.303763
-0.428267 0.649214 -0.042901
0.436771 -0.503578 0.079426
-0.009984 -0.069114 0.383549
0.094681 0.896658 -0.150063
-0.348743 -0.338938 -0.169088
0.040063 0.155962 -0.180104
-0.307570 -0.482781 -0.418877
0.260070 0.006198 0.296269
-0.433154 0.826029 0.068850
0.273903 -0.009632 0.270678
-0.249578 0.429597 -0.149559
-0.241271 -0.581241 0.261078
0.247089 0.602251 -0.152136
0.447141 -0.718768 0.034413
-0.005576 0.149988 -0.163601
-0.066310 0.106186 -0.034611
-0.087041 0.447192 -0.154051
-0.212973 -0.088697 0.482936
-0.394138 0.847400 0.000021
-0.101894 -0.028929 0.322340
-0.195387 0.703512 -0.110175
0.309081 -0.340528 -0.146701
0.460472 -0.743688 0.024302
0.075672 0.087108 0.060154
0.201202 0.158160 -0.334688
0.408264 0.047269 0.044577
-0.303663 -0.440881 -0.388982
-0.352096 -0.541748 -0.416311
-0.330749 -0.118012 -0.298893
0.321365 0.055226 -0.050201
-0.240567 0.032491 0.221746
0.187134 0.685149 -0.151147
0.018716 0.119441 -0.080393
-0.251786 -0.614349 0.317816
0.247231 -0.022341 -0.338344
-0.104654 0.132125 -0.050800
-0.003101 0.901083 -0.131091
0.217434 -0.426355 0.222430
-0.298164 -0.526234 0.272737
-0.426393 0.470763 -0.069886
0.134685 0.015428 0.202770
-0.339646 -0.369036 -0.079923
0.083119 0.206510 -0.252493
-0.369359 0.515843 -0.081563
-0.244369 0.012457 0.274760
0.098597 0.168707 -0.215335
-0.297284 -0.401443 0.062998
0.490564 -0.646841 0.109287
-0.052638 -0.002292 0.254363
-0.390466 0.294310 -0.145846
-0.302754 0.044234 -0.012594
0.240176 0.549450 -0.223791
0.018027 0.188023 -0.195780
-0.264507 -0.249571 0.442295
-0.288409 -0.168707 0.460253
-0.375429 0.288263 -0.079394
-0.232155 -0.009950 0.341023
0.222931 0.102516 0.022026
0.165749 0.026351 0.173283
-0.163343 0.073215 0.104816
-0.229444 0.133942 -0.120772
-0.351548 -0.535885 -0.412896
0.237464 -0.112629 0.335562
0.019912 0.045675 0.120501
0.003057 -0.048603 0.375053
-0.233681 -0.530834 0.329366
0.259932 0.069113 0.061416
0.389691 0.069732 0.114373
0.405599 0.065217 0.039496
-0.459610 0.689884 -0.019734
0.386250 -0.110666 0.309684
0.057389 0.169872 -0.218685
0.094662 0.716419 -0.143500
-0.137864 -0.429363 0.325301
0.466849 -0.321949 0.218713
0.031076 -0.045079 0.443384
-0.295564 -0.919922 0.233496
-0.420126 0.486650 -0.036167
-0.378964 0.097767 -0.204722
-0.264200 -0.406935 0.297377
0.357408 0.002763 0.308076
0.189399 -0.024192 0.385565
0.437131 -0.636958 0.056275
0.496380 -0.697133 0.050179
-0.336460 0.042412 -0.028011
-0.278359 0.012759 0.138855
0.257406 0.151174 -0.099932
0.118302 0.465385 -0.226949
